# .PCD v.7 - Point Cloud Data file format
VERSION .7
FIELDS x y z
SIZE 4 4 4
TYPE F F F
COUNT 1 1 1
WIDTH 1332
HEIGHT 1
POINTS 1332
DATA ascii
15097.629883 30840.150391 16.549999
15098.669922 30835.750000 8.060000
15096.769531 30839.279297 15.850000
15097.190430 30838.890625 14.850000
15097.580078 30838.910156 14.840000
15097.709961 30839.919922 16.450001
15096.839844 30839.080078 15.900000
15097.299805 30838.509766 14.590000
15098.290039 30835.699219 9.470000
15098.700195 30835.919922 9.530000
15096.879883 30839.140625 16.420000
15097.330078 30838.580078 15.150000
15097.750000 30838.410156 14.840000
15098.440430 30835.199219 9.070000
15098.290039 30837.769531 13.420000
15098.889648 30835.310547 8.970000
15096.889648 30839.300781 17.120001
15097.519531 30835.390625 10.180000
15097.919922 30835.640625 10.380000
15097.830078 30838.230469 14.970000
15098.360352 30835.759766 10.660000
15098.740234 30836.070313 10.870000
15099.070313 30834.720703 8.480000
15097.089844 30838.320313 15.750000
15097.629883 30835.060547 10.160000
15098.040039 30835.269531 10.280000
15097.990234 30837.650391 14.360000
15098.469727 30835.460938 10.630000
15097.950195 30839.349609 17.020000
15098.309570 30837.910156 14.590000
15098.129883 30835.009766 10.370000
15098.070313 30837.419922 14.410000
15098.589844 30835.109375 10.520000
15098.080078 30838.960938 16.790001
15098.400391 30837.689453 14.640000
15097.530273 30836.250000 13.170000
15097.919922 30836.320313 13.040000
15098.299805 30836.580078 13.460000
15098.120117 30838.900391 17.110001
15098.219727 30837.060547 14.710000
15098.400391 30836.289063 13.450000
15098.509766 30837.470703 15.100000
15097.849609 30834.949219 11.990000
15097.959961 30836.519531 14.260000
15098.250000 30835.089844 12.000000
15098.299805 30836.869141 14.820000
15098.700195 30835.109375 12.000000
15098.610352 30837.179688 15.050000
15099.099609 30835.279297 12.010000
15097.679688 30836.179688 14.370000
15097.940430 30834.730469 12.150000
15098.049805 30836.259766 14.300000
15098.360352 30834.779297 11.970000
15098.339844 30836.839844 15.180000
15098.669922 30837.029297 15.240000
15098.030273 30834.480469 12.230000
15098.150391 30835.990234 14.300000
15098.389648 30836.730469 15.420000
15098.750000 30836.859375 15.370000
15098.179688 30836.009766 14.760000
15098.389648 30836.880859 16.049999
15098.610352 30837.500000 16.760000
15098.870117 30836.490234 15.230000
15098.059570 30836.750000 16.250000
15098.450195 30836.740234 16.230000
15098.360352 30838.539063 18.850000
15098.740234 30837.089844 16.530001
15098.160156 30836.439453 16.180000
15098.379883 30835.439453 14.760000
15098.519531 30836.570313 16.370001
15098.809570 30836.919922 16.650000
15099.099609 30835.820313 15.060000
15097.889648 30836.119141 16.299999
15098.250000 30836.220703 16.250000
15098.429688 30837.089844 17.490000
15098.660156 30837.570313 17.980000
15097.959961 30835.990234 16.490000
15098.209961 30834.660156 14.670000
15098.349609 30835.890625 16.200001
15098.490234 30836.960938 17.639999
15098.730469 30837.380859 18.030001
15098.339844 30834.210938 14.480000
15098.400391 30835.839844 16.520000
15098.519531 30836.929688 17.959999
15098.870117 30836.980469 17.820000
15098.410156 30834.060547 14.710000
15098.290039 30836.470703 17.700001
15098.530273 30835.369141 16.230000
15098.620117 30836.640625 17.910000
15098.940430 30836.810547 17.930000
15098.379883 30836.210938 17.719999
15098.639648 30836.669922 18.290001
15098.950195 30836.839844 18.330000
15098.440430 30836.060547 17.860001
15098.759766 30836.289063 18.139999
15099.019531 30836.679688 18.450001
15098.519531 30835.869141 17.990000
15098.719727 30836.550781 18.809999
15098.969727 30836.919922 19.100000
15098.660156 30833.619141 15.670000
15098.440430 30836.320313 18.870001
15098.830078 30836.230469 18.730000
15099.089844 30836.580078 18.980000
15098.959961 30835.820313 18.559999
15099.110352 30836.570313 19.290001
15099.129883 30835.259766 18.200001
15099.179688 30836.410156 19.420000
15098.940430 30836.109375 19.549999
15099.209961 30836.369141 19.690001
15099.700195 30834.740234 18.090000
15096.099609 30842.519531 3.660000
15096.330078 30841.769531 10.050000
15096.769531 30841.619141 9.120000
15095.990234 30841.390625 9.720000
15096.419922 30841.509766 10.000000
15096.870117 30841.320313 9.010000
15096.080078 30841.160156 9.820000
15096.309570 30842.750000 14.150000
15096.509766 30841.269531 10.040000
15096.959961 30841.099609 9.120000
15095.769531 30840.789063 9.920000
15096.019531 30842.470703 14.030000
15096.169922 30840.929688 9.900000
15096.400391 30842.470703 14.000000
15096.589844 30841.109375 10.310000
15097.049805 30840.839844 9.140000
15096.099609 30842.230469 14.020000
15096.250000 30840.740234 10.080000
15096.480469 30842.240234 14.010000
15096.679688 30840.839844 10.260000
15097.059570 30841.050781 10.420000
15096.179688 30841.960938 13.920000
15096.559570 30842.000000 13.980000
15096.769531 30840.609375 10.340000
15096.830078 30840.179688 9.210000
15096.860352 30842.339844 14.520000
15097.150391 30840.789063 10.430000
15095.919922 30841.580078 13.860000
15096.259766 30841.720703 13.890000
15096.429688 30840.279297 10.210000
15096.650391 30841.710938 13.800000
15096.940430 30839.830078 8.980000
15096.919922 30842.210938 14.740000
15096.000000 30841.310547 13.730000
15096.349609 30841.449219 13.750000
15096.700195 30841.669922 14.250000
15097.009766 30841.949219 14.630000
15096.089844 30841.000000 13.560000
15096.440430 30841.140625 13.570000
15096.759766 30841.570313 14.550000
15097.059570 30841.869141 14.980000
15096.120117 30841.250000 14.700000
15096.169922 30840.730469 13.480000
15096.480469 30841.220703 14.300000
15096.839844 30841.349609 14.570000
15097.110352 30841.769531 15.260000
15096.230469 30840.710938 13.980000
15096.549805 30841.060547 14.470000
15096.879883 30841.330078 15.030000
15097.219727 30841.439453 14.990000
15096.330078 30840.330078 13.630000
15096.530273 30838.419922 9.220000
15096.629883 30840.839844 14.460000
15096.969727 30841.070313 14.960000
15097.080078 30840.439453 13.510000
15097.269531 30841.320313 15.230000
15096.440430 30839.759766 12.860000
15096.639648 30838.029297 8.940000
15096.740234 30840.349609 13.880000
15097.049805 30840.800781 14.870000
15097.339844 30841.160156 15.390000
15096.530273 30839.539063 12.920000
15096.849609 30839.910156 13.420000
15097.120117 30840.650391 15.000000
15097.379883 30841.099609 15.740000
15096.610352 30839.269531 12.840000
15096.929688 30839.710938 13.470000
15097.049805 30838.929688 11.780000
15097.120117 30840.859375 15.950000
15097.429688 30841.019531 16.030001
15096.730469 30838.779297 12.290000
15096.849609 30840.570313 15.840000
15097.099609 30838.949219 12.350000
15097.190430 30840.679688 16.030001
15097.490234 30840.919922 16.270000
15096.679688 30839.589844 14.520000
15097.160156 30838.900391 12.770000
15097.290039 30840.330078 15.730000
15097.559570 30840.720703 16.270000
15096.740234 30839.509766 14.830000
15096.849609 30838.689453 13.130000
15097.000000 30840.109375 15.780000
15097.209961 30838.839844 13.170000
15097.360352 30840.150391 15.810000
15097.639648 30840.509766 16.280001
15096.790039 30839.519531 15.290000
15097.290039 30838.609375 13.220000
15097.379883 30840.269531 16.480000
15098.110352 30836.570313 9.210000
15097.690430 30840.419922 16.520000
15096.839844 30839.500000 15.700000
15097.759766 30836.130859 8.960000
15097.650391 30839.089844 14.540000
15097.759766 30840.230469 16.559999
15096.910156 30839.269531 15.690000
15097.330078 30838.919922 14.770000
15097.709961 30838.970703 14.800000
15097.839844 30840.009766 16.459999
15096.990234 30839.080078 15.750000
15097.389648 30838.779297 14.960000
15098.410156 30835.779297 9.480000
15098.820313 30835.980469 9.500000
15097.009766 30839.220703 16.440001
15097.509766 30838.369141 14.630000
15097.889648 30838.460938 14.830000
15098.570313 30835.230469 9.000000
15098.410156 30837.880859 13.480000
15099.009766 30835.369141 8.940000
15097.040039 30839.320313 17.020000
15097.639648 30835.449219 10.160000
15098.049805 30835.679688 10.350000
15097.959961 30838.279297 14.930000
15098.480469 30835.849609 10.670000
15098.509766 30837.560547 13.340000
15098.860352 30836.119141 10.820000
15099.190430 30834.779297 8.450000
15097.740234 30835.140625 10.180000
15098.150391 30835.349609 10.310000
15098.110352 30837.750000 14.410000
15098.589844 30835.519531 10.600000
15098.089844 30839.410156 16.950001
15098.440430 30837.980469 14.570000
15098.250000 30835.089844 10.390000
15097.870117 30839.009766 16.940001
15098.200195 30837.470703 14.360000
15098.700195 30835.189453 10.530000
15098.219727 30839.009766 16.730000
15098.509766 30837.820313 14.740000
15097.660156 30836.259766 13.070000
15098.049805 30836.400391 13.050000
15098.419922 30836.640625 13.430000
15098.259766 30838.929688 17.020000
15097.759766 30835.949219 12.990000
15098.349609 30837.119141 14.660000
15098.530273 30836.339844 13.400000
15098.339844 30838.710938 17.110001
15098.629883 30837.570313 15.150000
15097.969727 30835.019531 11.980000
15098.089844 30836.580078 14.230000
15098.370117 30835.160156 11.980000
15098.419922 30836.960938 14.810000
15098.820313 30835.179688 11.980000
15098.730469 30837.289063 15.080000
15099.219727 30835.349609 12.020000
15097.809570 30836.240234 14.350000
15098.049805 30834.820313 12.160000
15098.179688 30836.349609 14.310000
15098.480469 30834.820313 11.910000
15098.469727 30836.900391 15.140000
15098.799805 30837.119141 15.240000
15098.150391 30834.529297 12.200000
15098.280273 30836.029297 14.260000
15098.530273 30836.779297 15.350000
15098.879883 30836.929688 15.350000
15099.120117 30835.960938 13.880000
15098.299805 30836.119141 14.790000
15098.480469 30837.119141 16.290001
15098.750000 30837.529297 16.680000
15099.000000 30836.560547 15.190000
15098.200195 30836.779297 16.190001
15098.589844 30836.789063 16.170000
15098.500000 30838.599609 18.809999
15098.870117 30837.140625 16.469999
15098.290039 30836.519531 16.190001
15098.500000 30835.529297 14.780000
15098.650391 30836.650391 16.350000
15098.940430 30837.009766 16.639999
15099.230469 30835.880859 15.020000
15098.019531 30836.199219 16.320000
15098.379883 30836.279297 16.240000
15098.559570 30837.179688 17.469999
15098.790039 30837.640625 17.959999
15098.080078 30836.070313 16.500000
15098.480469 30835.980469 16.180000
15098.610352 30837.070313 17.680000
15098.860352 30837.470703 18.049999
15098.459961 30834.289063 14.480000
15098.509766 30835.990234 16.590000
15098.660156 30837.000000 17.920000
15099.000000 30837.039063 17.770000
15098.530273 30834.150391 14.710000
15098.419922 30836.539063 17.690001
15098.679688 30835.359375 16.090000
15098.759766 30836.689453 17.850000
15099.049805 30836.939453 17.990000
15098.509766 30836.289063 17.700001
15098.780273 30836.720703 18.230000
15099.070313 30836.960938 18.360001
15098.580078 30836.099609 17.809999
15098.879883 30836.400391 18.160000
15099.169922 30836.689453 18.330000
15098.650391 30835.919922 17.920000
15098.969727 30834.529297 16.150000
15098.879883 30836.519531 18.650000
15099.089844 30837.050781 19.129999
15098.780273 30833.699219 15.630000
15098.580078 30836.369141 18.809999
15099.059570 30834.269531 16.170000
15098.959961 30836.320313 18.730000
15099.200195 30836.740234 19.070000
15099.070313 30835.980469 18.639999
15099.250000 30836.640625 19.260000
15099.019531 30836.289063 19.330000
15099.259766 30835.320313 18.170000
15099.309570 30836.500000 19.410000
15099.059570 30836.220703 19.570000
15099.339844 30836.480469 19.700001
15099.830078 30834.800781 18.070000
15096.440430 30841.869141 10.060000
15096.879883 30841.689453 9.030000
15095.709961 30841.369141 9.810000
15096.099609 30841.509766 9.790000
15096.530273 30841.609375 10.010000
15096.980469 30841.429688 9.040000
15095.799805 30841.119141 9.860000
15096.059570 30842.810547 14.060000
15096.190430 30841.279297 9.860000
15096.620117 30841.359375 10.020000
15097.070313 30841.179688 9.080000
15095.879883 30840.880859 9.890000
15096.139648 30842.550781 13.990000
15096.280273 30841.050781 9.950000
15096.700195 30841.220703 10.340000
15095.879883 30842.240234 14.110000
15096.219727 30842.320313 13.990000
15096.599609 30842.359375 14.040000
15096.790039 30840.990234 10.400000
15096.900391 30842.689453 14.590000
15097.250000 30840.720703 9.250000
15095.959961 30841.970703 14.000000
15096.299805 30842.060547 13.930000
15096.650391 30842.289063 14.450000
15096.879883 30840.720703 10.360000
15096.990234 30842.410156 14.430000
15097.349609 30840.429688 9.170000
15096.040039 30841.699219 13.910000
15096.379883 30841.839844 13.940000
15096.740234 30842.000000 14.280000
15096.799805 30841.599609 13.270000
15097.049805 30839.919922 8.960000
15097.040039 30842.349609 14.840000
15096.120117 30841.449219 13.840000
15096.459961 30841.609375 13.930000
15096.809570 30841.849609 14.460000
15097.129883 30842.070313 14.690000
15096.209961 30841.140625 13.660000
15096.509766 30841.609375 14.480000
15096.849609 30841.869141 15.070000
15097.179688 30841.990234 15.020000
15096.250000 30841.310547 14.590000
15096.610352 30841.240234 14.120000
15096.929688 30841.650391 15.050000
15097.240234 30841.869141 15.240000
15096.330078 30841.039063 14.500000
15096.669922 30841.199219 14.550000
15097.000000 30841.480469 15.160000
15097.330078 30841.619141 15.170000
15096.429688 30840.619141 14.070000
15096.719727 30841.140625 14.940000
15097.089844 30841.179688 14.980000
15097.389648 30841.490234 15.400000
15096.480469 30840.679688 14.700000
15096.530273 30840.220703 13.700000
15096.830078 30840.720703 14.510000
15097.139648 30841.140625 15.400000
15097.440430 30841.380859 15.650000
15096.629883 30839.800781 13.280000
15096.940430 30840.310547 14.100000
15097.219727 30840.900391 15.350000
15097.519531 30841.199219 15.750000
15096.919922 30840.730469 15.500000
15097.059570 30839.800781 13.470000
15097.179688 30838.990234 11.700000
15097.250000 30840.980469 16.010000
15097.610352 30840.910156 15.550000
15097.809570 30839.980469 13.400000
15096.849609 30838.910156 12.380000
15096.980469 30840.650391 15.810000
15097.330078 30840.759766 15.990000
15097.580078 30841.189453 16.650000
15096.919922 30838.810547 12.690000
15097.049805 30840.490234 15.930000
15097.389648 30840.630859 16.150000
15097.679688 30840.900391 16.450001
15096.969727 30838.849609 13.270000
15097.139648 30840.179688 15.720000
15097.379883 30838.679688 12.670000
15097.469727 30840.369141 16.059999
15097.780273 30840.550781 16.170000
15096.990234 30839.050781 14.170000
15097.469727 30838.410156 12.610000
15097.769531 30836.589844 9.100000
15097.509766 30840.359375 16.480000
15097.820313 30840.519531 16.549999
15097.980469 30839.800781 14.940000
15096.959961 30839.660156 15.820000
15097.459961 30836.009766 8.840000
15097.389648 30839.210938 14.630000
15097.879883 30836.279297 9.080000
15097.580078 30840.179688 16.530001
15098.330078 30836.439453 9.370000
15097.900391 30840.320313 16.540001
15097.089844 30839.099609 15.190000
15097.459961 30839.029297 14.760000
15097.669922 30839.939453 16.410000
15098.559570 30835.509766 8.230000
15097.980469 30840.070313 16.410000
15097.150391 30838.990234 15.410000
15097.570313 30838.619141 14.480000
15098.519531 30835.939453 9.580000
15097.179688 30839.099609 16.049999
15097.290039 30838.349609 14.650000
15097.639648 30838.480469 14.660000
15098.690430 30835.310547 8.990000
15098.129883 30839.689453 16.469999
15099.099609 30835.609375 9.210000
15097.759766 30835.570313 10.230000
15097.709961 30838.339844 14.870000
15098.160156 30835.820313 10.450000
15098.820313 30834.910156 8.830000
15098.639648 30837.689453 13.410000
15098.980469 30836.269531 10.910000
15099.290039 30834.960938 8.610000
15097.860352 30835.279297 10.270000
15098.259766 30835.529297 10.500000
15098.230469 30837.890625 14.500000
15098.250000 30839.429688 16.770000
15098.740234 30837.390625 13.330000
15099.450195 30834.439453 8.280000
15097.959961 30834.990234 10.330000
15097.950195 30837.500000 14.270000
15098.379883 30835.179688 10.390000
15098.030273 30839.009766 16.780001
15098.299805 30837.730469 14.650000
15098.309570 30839.289063 16.980000
15098.620117 30838.009766 14.910000
15097.790039 30836.369141 13.090000
15098.150391 30836.640625 13.310000
15098.099609 30838.839844 16.940001
15098.429688 30837.300781 14.350000
15098.400391 30839.029297 17.010000
15097.889648 30836.089844 13.100000
15098.250000 30836.339844 13.260000
15098.200195 30838.539063 16.920000
15098.450195 30837.369141 14.880000
15098.500000 30838.759766 17.040001
15098.769531 30837.660156 15.130000
15097.860352 30836.529297 14.240000
15098.099609 30835.119141 12.020000
15098.169922 30836.949219 14.720000
15098.509766 30835.220703 11.940000
15098.559570 30837.060547 14.820000
15098.490234 30838.910156 17.610001
15098.849609 30837.439453 15.180000
15099.139648 30836.269531 13.340000
15097.950195 30836.310547 14.330000
15098.200195 30834.859375 12.090000
15098.309570 30836.460938 14.340000
15098.610352 30834.929688 11.950000
15098.610352 30836.980469 15.100000
15098.870117 30835.820313 13.320000
15098.540039 30838.789063 17.820000
15098.919922 30837.279297 15.340000
15098.040039 30836.029297 14.310000
15098.290039 30834.599609 12.190000
15098.410156 30836.150391 14.280000
15098.679688 30836.810547 15.260000
15098.679688 30838.339844 17.520000
15099.200195 30836.310547 14.270000
15098.120117 30835.820313 14.440000
15098.349609 30836.679688 15.510000
15098.620117 30837.240234 16.299999
15098.589844 30838.820313 18.549999
15099.200195 30836.410156 14.830000
15099.400391 30835.619141 13.690000
15098.000000 30836.720703 16.160000
15098.219727 30835.519531 14.430000
15098.349609 30836.859375 16.160000
15098.349609 30838.539063 18.770000
15098.660156 30837.169922 16.580000
15098.679688 30838.529297 18.559999
15099.200195 30836.519531 15.400000
15098.080078 30836.500000 16.230000
15098.429688 30836.630859 16.209999
15098.620117 30835.710938 14.920000
15098.759766 30836.890625 16.540001
15098.750000 30838.390625 18.670000
15099.059570 30837.189453 16.760000
15098.179688 30836.220703 16.209999
15098.500000 30836.449219 16.340000
15098.639648 30837.560547 17.889999
15098.809570 30838.240234 18.750000
15099.230469 30836.640625 16.350000
15098.259766 30835.960938 16.250000
15098.389648 30837.179688 17.740000
15098.610352 30836.109375 16.250000
15098.690430 30837.429688 18.040001
15098.839844 30838.220703 19.070000
15098.360352 30835.679688 16.270000
15098.480469 30836.869141 17.639999
15098.820313 30837.029297 17.820000
15098.940430 30837.910156 18.920000
15098.230469 30836.529297 17.740000
15098.440430 30835.470703 16.330000
15098.530273 30836.810547 17.910000
15098.900391 30836.800781 17.870001
15099.169922 30837.160156 18.160000
15098.309570 30836.330078 17.820000
15098.639648 30836.439453 17.770000
15098.950195 30836.730469 18.120001
15099.259766 30836.890625 18.129999
15098.389648 30836.080078 17.840000
15098.669922 30836.480469 18.160000
15098.980469 30836.720703 18.430000
15099.360352 30836.640625 18.160000
15098.740234 30836.289063 18.270000
15098.969727 30836.869141 18.969999
15099.240234 30837.169922 19.170000
15098.730469 30836.500000 18.850000
15099.080078 30836.550781 18.889999
15099.339844 30836.859375 19.090000
15098.879883 30835.970703 18.540001
15099.290039 30834.140625 16.270000
15099.139648 30836.419922 19.049999
15099.419922 30836.679688 19.190001
15098.910156 30835.980469 18.870001
15099.160156 30836.419922 19.360001
15099.440430 30836.679688 19.510000
15099.209961 30836.320313 19.570000
15099.490234 30836.570313 19.700001
15099.610352 30836.240234 19.629999
15099.990234 30834.849609 18.020000
15099.700195 30835.980469 19.650000
15096.969727 30841.769531 9.080000
15095.799805 30841.439453 9.800000
15096.620117 30841.679688 9.990000
15097.070313 30841.490234 9.000000
15095.889648 30841.189453 9.830000
15096.280273 30841.349609 9.860000
15096.709961 30841.439453 10.030000
15097.160156 30841.240234 9.060000
15095.969727 30840.939453 9.860000
15096.240234 30842.660156 14.080000
15096.370117 30841.109375 9.890000
15096.620117 30842.669922 14.070000
15096.799805 30841.210938 10.110000
15097.250000 30841.029297 9.200000
15095.980469 30842.310547 14.090000
15096.320313 30842.369141 13.920000
15096.459961 30840.910156 10.060000
15096.879883 30841.050781 10.360000
15097.000000 30842.759766 14.570000
15097.339844 30840.789063 9.250000
15096.059570 30842.039063 13.990000
15096.400391 30842.150391 13.950000
15096.540039 30840.750000 10.310000
15096.759766 30842.339844 14.360000
15096.969727 30840.759766 10.290000
15097.089844 30842.509766 14.480000
15096.139648 30841.800781 13.960000
15096.480469 30841.910156 13.910000
15096.629883 30840.449219 10.190000
15096.849609 30842.060547 14.240000
15096.910156 30841.640625 13.150000
15097.129883 30840.039063 9.060000
15097.150391 30842.410156 14.770000
15096.219727 30841.509766 13.780000
15096.570313 30841.640625 13.790000
15096.919922 30841.890625 14.350000
15097.219727 30842.189453 14.790000
15096.309570 30841.179688 13.570000
15096.620117 30841.679688 14.440000
15096.950195 30841.990234 15.140000
15097.290039 30842.060547 14.980000
15096.360352 30841.330078 14.460000
15096.719727 30841.289063 14.050000
15097.040039 30841.699219 14.970000
15097.360352 30841.869141 15.040000
15096.440430 30841.109375 14.470000
15096.769531 30841.279297 14.550000
15097.120117 30841.500000 15.020000
15097.450195 30841.599609 14.920000
15097.570313 30840.980469 13.480000
15096.530273 30840.710938 14.080000
15096.719727 30838.669922 9.400000
15096.830078 30841.179688 14.850000
15097.190430 30841.300781 15.060000
15097.500000 30841.529297 15.290000
15097.629883 30840.869141 13.760000
15096.580078 30840.759766 14.690000
15096.839844 30838.220703 9.010000
15096.940430 30840.779297 14.450000
15097.240234 30841.250000 15.450000
15097.549805 30841.480469 15.690000
15096.730469 30839.890625 13.290000
15097.040039 30840.400391 14.110000
15097.330078 30840.960938 15.300000
15097.459961 30840.220703 13.630000
15097.610352 30841.320313 15.830000
15096.799805 30839.740234 13.460000
15096.889648 30838.980469 11.820000
15097.019531 30840.839844 15.560000
15097.160156 30839.900391 13.510000
15097.360352 30841.019531 15.910000
15097.719727 30840.949219 15.460000
15097.900391 30840.099609 13.500000
15096.929688 30839.119141 12.670000
15097.080078 30840.769531 15.880000
15097.450195 30840.769531 15.810000
15097.719727 30841.130859 16.330000
15097.110352 30838.050781 10.960000
15097.150391 30840.599609 15.960000
15097.490234 30840.720703 16.160000
15097.780273 30841.000000 16.480000
15096.969727 30839.689453 14.820000
15097.070313 30838.900391 13.210000
15097.240234 30840.269531 15.720000
15097.469727 30838.789063 12.730000
15097.599609 30840.359375 15.860000
15097.889648 30840.640625 16.170000
15097.129883 30838.820313 13.550000
15097.320313 30840.039063 15.700000
15097.570313 30838.500000 12.640000
15097.860352 30836.640625 9.040000
15097.610352 30840.470703 16.520000
15097.959961 30840.470703 16.250000
15097.059570 30839.750000 15.830000
15097.540039 30836.080078 8.840000
15097.490234 30839.279297 14.570000
15097.959961 30836.359375 9.100000
15097.690430 30840.269531 16.540001
15097.879883 30839.259766 14.480000
15098.009766 30840.369141 16.480000
15097.209961 30839.029297 14.890000
15097.559570 30839.089844 14.680000
15097.769531 30840.019531 16.410000
15098.509766 30836.250000 9.430000
15098.089844 30840.140625 16.410000
15097.259766 30839.000000 15.280000
15097.650391 30838.849609 14.750000
15098.599609 30836.000000 9.540000
15099.059570 30836.009766 9.230000
15097.290039 30839.160156 16.000000
15097.389648 30838.470703 14.740000
15097.750000 30838.519531 14.610000
15098.280273 30835.390625 9.030000
15098.759766 30835.449219 9.100000
15098.230469 30839.820313 16.570000
15099.179688 30835.689453 9.210000
15097.849609 30835.609375 10.190000
15097.799805 30838.460938 14.940000
15098.910156 30834.960938 8.770000
15098.320313 30839.560547 16.420000
15098.730469 30837.769531 13.420000
15099.070313 30836.330078 10.860000
15097.950195 30835.339844 10.250000
15098.349609 30835.599609 10.480000
15098.330078 30837.980469 14.510000
15098.360352 30839.500000 16.740000
15098.849609 30837.429688 13.260000
15099.549805 30834.449219 8.160000
15098.049805 30835.060547 10.310000
15098.049805 30837.560547 14.230000
15098.459961 30835.269531 10.410000
15098.139648 30839.060547 16.700001
15098.410156 30837.769531 14.570000
15098.429688 30839.349609 16.889999
15098.709961 30838.140625 15.000000
15097.889648 30836.429688 13.060000
15098.259766 30836.640625 13.160000
15098.570313 30834.949219 10.370000
15098.200195 30838.929688 16.930000
15098.530273 30837.390625 14.330000
15098.509766 30839.140625 16.990000
15097.990234 30836.150391 13.050000
15098.339844 30836.449219 13.320000
15098.309570 30838.599609 16.870001
15098.559570 30837.439453 14.850000
15098.610352 30838.820313 16.940001
15098.190430 30835.210938 12.050000
15098.280273 30836.990234 14.620000
15098.469727 30836.009766 13.070000
15098.610352 30835.259766 11.870000
15098.650391 30837.169922 14.840000
15098.440430 30839.650391 18.459999
15098.599609 30838.990234 17.520000
15098.950195 30837.529297 15.200000
15098.040039 30836.380859 14.310000
15098.290039 30834.910156 12.040000
15098.410156 30836.529297 14.320000
15098.700195 30835.000000 11.910000
15098.709961 30837.070313 15.100000
15098.969727 30835.890625 13.300000
15098.660156 30838.839844 17.700001
15098.139648 30836.099609 14.300000
15098.379883 30834.689453 12.170000
15098.509766 30836.250000 14.320000
15098.780273 30836.910156 15.260000
15098.790039 30838.439453 17.540001
15099.250000 30836.589844 14.530000
15098.240234 30835.779297 14.280000
15098.450195 30836.759766 15.480000
15098.740234 30837.230469 16.129999
15098.709961 30838.880859 18.440001
15099.330078 30836.359375 14.630000
15098.269531 30835.859375 14.820000
15098.459961 30836.900391 16.070000
15098.459961 30838.609375 18.719999
15098.769531 30837.259766 16.570000
15098.790039 30838.630859 18.480000
15099.309570 30836.589844 15.350000
15098.190430 30836.560547 16.200001
15098.549805 30836.630859 16.070000
15098.530273 30838.429688 18.799999
15098.870117 30836.939453 16.480000
15098.870117 30838.439453 18.610001
15099.169922 30837.240234 16.700001
15098.280273 30836.300781 16.190001
15098.599609 30836.550781 16.330000
15098.740234 30837.650391 17.889999
15098.990234 30836.570313 16.340000
15098.900391 30838.419922 18.910000
15099.360352 30836.589844 16.150000
15098.379883 30835.990234 16.170000
15098.490234 30837.269531 17.719999
15098.719727 30836.169922 16.190001
15098.820313 30837.460938 17.950001
15098.919922 30838.439453 19.270000
15099.129883 30837.609375 18.010000
15098.450195 30835.810547 16.320000
15098.570313 30837.070313 17.780001
15098.929688 30837.109375 17.799999
15099.049805 30838.000000 18.940001
15098.540039 30835.550781 16.340000
15098.639648 30836.890625 17.870001
15099.009766 30836.900391 17.870001
15099.269531 30837.259766 18.170000
15098.419922 30836.380859 17.760000
15098.759766 30836.480469 17.700001
15099.059570 30836.830078 18.120001
15099.410156 30836.849609 17.950001
15098.500000 30836.160156 17.820000
15098.769531 30836.589844 18.170000
15099.099609 30836.769531 18.379999
15099.469727 30836.720703 18.129999
15098.549805 30836.109375 18.090000
15098.849609 30836.390625 18.250000
15099.080078 30836.939453 18.930000
15099.370117 30837.189453 19.070000
15098.519531 30836.460938 18.860001
15098.839844 30836.550781 18.780001
15099.190430 30836.630859 18.850000
15099.469727 30836.880859 18.990000
15098.980469 30836.070313 18.530001
15099.400391 30834.199219 16.230000
15099.250000 30836.509766 19.040001
15099.530273 30836.759766 19.180000
15099.009766 30836.089844 18.889999
15099.269531 30836.509766 19.360001
15099.559570 30836.750000 19.480000
15099.320313 30836.419922 19.570000
15099.610352 30836.650391 19.680000
15099.330078 30836.519531 19.980000
15099.719727 30836.310547 19.610001
15100.099609 30834.929688 17.980000
15099.820313 30836.029297 19.580000
15095.870117 30841.539063 9.800000
15096.259766 30841.740234 9.950000
15096.730469 30841.460938 9.060000
15097.129883 30841.609375 9.050000
15095.959961 30841.300781 9.860000
15096.349609 30841.470703 9.900000
15097.230469 30841.320313 8.980000
15095.990234 30842.669922 14.140000
15096.049805 30841.039063 9.850000
15096.330078 30842.750000 14.040000
15096.440430 30841.250000 10.000000
15096.910156 30840.980469 9.210000
15096.070313 30842.380859 13.990000
15096.139648 30840.830078 9.990000
15096.410156 30842.500000 13.960000
15096.519531 30841.080078 10.240000
15096.950195 30841.179688 10.430000
15097.089844 30842.869141 14.570000
15096.150391 30842.130859 13.950000
15096.490234 30842.259766 13.960000
15096.620117 30840.800781 10.170000
15096.849609 30842.480469 14.450000
15097.099609 30840.439453 9.180000
15097.179688 30842.580078 14.390000
15096.230469 30841.890625 13.930000
15096.570313 30842.009766 13.910000
15096.750000 30840.089844 9.020000
15096.919922 30842.279297 14.530000
15097.280273 30842.259766 14.140000
15096.309570 30841.609375 13.810000
15096.660156 30841.650391 13.560000
15096.849609 30839.789063 8.920000
15096.990234 30842.130859 14.700000
15097.320313 30842.279297 14.750000
15096.379883 30841.560547 14.230000
15096.709961 30841.800781 14.480000
15097.049805 30842.039063 15.010000
15097.389648 30842.080078 14.780000
15096.459961 30841.279297 14.090000
15096.769531 30841.679688 14.740000
15097.120117 30841.869141 15.120000
15097.490234 30841.800781 14.630000
15096.519531 30841.259766 14.590000
15096.839844 30841.529297 14.900000
15096.910156 30840.980469 13.630000
15097.190430 30841.689453 15.210000
15097.580078 30841.480469 14.430000
15096.610352 30840.970703 14.440000
15096.919922 30841.339844 14.970000
15097.280273 30841.419922 15.110000
15097.589844 30841.640625 15.300000
15097.799805 30840.550781 12.770000
15096.669922 30840.849609 14.670000
15096.990234 30841.210938 15.170000
15097.330078 30841.369141 15.490000
15097.629883 30841.650391 15.810000
15096.759766 30840.599609 14.640000
15096.809570 30840.070313 13.490000
15097.070313 30840.900391 14.990000
15097.410156 30841.179688 15.570000
15097.719727 30841.380859 15.730000
15096.889648 30839.849609 13.490000
15097.110352 30840.970703 15.630000
15097.469727 30841.039063 15.740000
15097.629883 30840.089844 13.600000
15097.830078 30840.990234 15.330000
15096.849609 30840.730469 15.850000
15097.169922 30840.929688 16.010000
15097.509766 30841.070313 16.270000
15097.849609 30841.089844 16.010000
15096.919922 30840.550781 15.940000
15097.250000 30840.699219 15.970000
15097.570313 30840.929688 16.400000
15097.690430 30840.259766 14.980000
15097.870117 30841.140625 16.570000
15097.009766 30840.210938 15.700000
15097.169922 30838.830078 12.890000
15097.330078 30840.439453 15.870000
15097.660156 30840.630859 16.209999
15097.959961 30840.880859 16.459999
15098.110352 30840.150391 14.880000
15097.269531 30838.509766 12.760000
15097.410156 30840.230469 15.880000
15097.709961 30840.599609 16.580000
15098.150391 30840.130859 15.300000
15097.610352 30836.199219 8.920000
15097.440430 30840.320313 16.500000
15098.019531 30836.470703 9.120000
15097.790039 30840.380859 16.549999
15098.110352 30840.470703 16.480000
15098.280273 30839.679688 14.780000
15097.299805 30839.130859 14.910000
15097.709961 30835.910156 8.930000
15097.669922 30839.070313 14.480000
15097.870117 30840.099609 16.379999
15098.200195 30840.230469 16.360001
15098.790039 30837.490234 11.220000
15099.000000 30836.500000 9.370000
15097.740234 30838.960938 14.740000
15098.209961 30836.019531 9.420000
15097.950195 30839.919922 16.400000
15098.269531 30840.039063 16.400000
15098.910156 30837.109375 11.030000
15099.030273 30836.550781 10.020000
15097.480469 30838.509766 14.650000
15098.230469 30836.259766 10.380000
15098.330078 30835.619141 9.290000
15098.809570 30835.630859 9.250000
15098.330078 30839.900391 16.520000
15097.540039 30838.439453 14.970000
15097.919922 30835.779297 10.340000
15097.900391 30838.509766 14.890000
15098.469727 30835.089844 8.880000
15098.450195 30837.750000 13.480000
15099.009766 30834.900391 8.500000
15098.419922 30839.650391 16.400000
15099.129883 30836.480469 10.950000
15098.019531 30835.480469 10.350000
15097.990234 30838.240234 14.840000
15098.419922 30835.750000 10.590000
15098.549805 30837.429688 13.350000
15098.459961 30839.630859 16.760000
15099.589844 30834.640625 8.320000
15098.120117 30835.160156 10.330000
15098.120117 30837.750000 14.410000
15098.219727 30839.279297 16.860001
15098.480469 30837.960938 14.760000
15098.570313 30839.259766 16.590000
15097.980469 30836.500000 13.030000
15097.950195 30838.980469 16.840000
15098.209961 30837.490234 14.390000
15098.299805 30839.060547 16.940001
15098.620117 30839.189453 16.870001
15098.059570 30836.279297 13.130000
15098.419922 30836.599609 13.390000
15098.389648 30838.779297 16.959999
15098.500000 30839.800781 18.240000
15098.709961 30838.929688 16.879999
15098.169922 30835.939453 13.040000
15098.269531 30835.269531 12.000000
15098.370117 30837.109375 14.660000
15098.719727 30837.390625 15.040000
15098.589844 30839.529297 18.139999
15098.139648 30836.460938 14.280000
15098.389648 30834.890625 11.880000
15098.440430 30836.949219 14.810000
15098.780273 30835.099609 11.940000
15098.780273 30837.269531 15.250000
15099.030273 30836.089844 13.470000
15098.750000 30838.990234 17.709999
15099.320313 30836.589844 13.970000
15098.219727 30836.220703 14.350000
15098.330078 30835.580078 13.420000
15098.500000 30836.880859 15.110000
15098.519531 30838.630859 17.900000
15098.870117 30837.000000 15.260000
15098.839844 30838.730469 17.740000
15099.019531 30838.009766 16.670000
15098.330078 30835.880859 14.290000
15098.530273 30836.890625 15.530000
15098.959961 30836.769531 15.310000
15099.129883 30835.980469 14.160000
15098.820313 30838.949219 18.370001
15099.080078 30837.859375 16.799999
15098.250000 30836.589844 15.720000
15098.509766 30837.240234 16.450001
15098.589844 30838.599609 18.580000
15098.849609 30837.429688 16.690001
15098.910156 30838.679688 18.370001
15099.440430 30836.519531 15.130000
15098.290039 30836.619141 16.139999
15098.299805 30838.500000 18.770000
15098.639648 30836.769531 16.120001
15098.660156 30838.449219 18.690001
15098.570313 30840.150391 20.760000
15098.969727 30838.539063 18.559999
15098.360352 30836.490234 16.340000
15098.709961 30836.589844 16.270000
15098.830078 30837.830078 18.030001
15098.679688 30839.800781 20.520000
15098.980469 30838.609375 18.959999
15098.419922 30836.380859 16.570000
15098.570313 30837.470703 17.860001
15098.730469 30836.699219 16.790001
15098.799805 30838.080078 18.760000
15099.040039 30838.490234 19.170000
15098.429688 30836.589844 17.209999
15098.690430 30837.050781 17.629999
15098.790039 30838.279297 19.389999
15099.000000 30837.339844 18.000000
15099.129883 30838.210938 19.160000
15098.410156 30836.869141 17.930000
15098.650391 30835.599609 16.270000
15098.750000 30836.939453 17.820000
15099.089844 30837.070313 17.969999
15099.459961 30837.039063 17.730000
15098.519531 30836.490234 17.780001
15098.849609 30836.650391 17.790001
15099.219727 30836.640625 17.750000
15099.480469 30837.070313 18.120001
15098.540039 30836.609375 18.270000
15098.900391 30836.589844 18.040001
15099.250000 30836.669922 18.129999
15099.599609 30836.699219 18.000000
15098.660156 30836.189453 18.070000
15098.919922 30836.619141 18.410000
15099.219727 30836.919922 18.770000
15099.559570 30836.939453 18.620001
15098.629883 30836.529297 18.830000
15098.980469 30836.519531 18.620001
15099.269531 30836.820313 18.980000
15099.650391 30836.730469 18.709999
15098.740234 30836.150391 18.700001
15099.129883 30834.150391 16.240000
15099.030273 30836.419922 18.830000
15099.330078 30836.699219 19.150000
15099.690430 30836.660156 18.940001
15098.849609 30835.779297 18.580000
15099.120117 30836.179688 18.879999
15099.360352 30836.689453 19.459999
15099.780273 30836.410156 18.980000
15099.129883 30836.259766 19.290001
15099.419922 30836.589844 19.639999
15099.809570 30836.410156 19.309999
15099.160156 30836.259766 19.600000
15099.459961 30836.519531 19.879999
15099.860352 30836.300781 19.480000
15100.209961 30835.019531 17.980000
15099.639648 30835.919922 19.520000
15099.879883 30836.320313 19.820000
15099.990234 30836.009766 19.770000
15097.070313 30841.910156 9.000000
15096.750000 30841.519531 9.090000
15097.160156 30841.640625 8.980000
15095.990234 30841.330078 9.770000
15096.379883 30841.519531 9.900000
15096.849609 30841.220703 8.980000
15097.250000 30841.400391 9.050000
15096.040039 30842.769531 14.240000
15096.070313 30841.089844 9.850000
15096.379883 30842.820313 14.050000
15096.469727 30841.310547 10.020000
15096.940430 30841.000000 9.120000
15097.349609 30841.130859 9.060000
15096.120117 30842.449219 14.020000
15096.160156 30840.900391 10.020000
15096.459961 30842.560547 13.960000
15096.549805 30841.109375 10.170000
15096.200195 30842.199219 13.970000
15096.540039 30842.320313 13.940000
15096.639648 30840.900391 10.290000
15096.889648 30842.580078 14.560000
15097.070313 30840.970703 10.410000
15097.230469 30842.660156 14.450000
15096.280273 30841.949219 13.940000
15096.339844 30840.439453 10.170000
15096.620117 30842.080078 13.920000
15096.730469 30840.630859 10.290000
15096.980469 30842.300781 14.400000
15097.160156 30840.730469 10.460000
15097.219727 30840.220703 9.130000
15097.330078 30842.330078 14.160000
15096.349609 30841.710938 13.910000
15096.700195 30841.810547 13.820000
15096.870117 30839.839844 8.930000
15097.030273 30842.279297 14.900000
15097.379883 30842.320313 14.680000
15096.429688 30841.460938 13.850000
15096.769531 30841.710938 14.120000
15097.120117 30841.970703 14.690000
15097.450195 30842.140625 14.780000
15097.530273 30841.599609 13.470000
15096.519531 30841.119141 13.600000
15096.849609 30841.449219 14.040000
15097.169922 30841.960938 15.180000
15097.530273 30841.880859 14.680000
15096.570313 30841.330078 14.600000
15096.889648 30841.599609 14.920000
15097.250000 30841.750000 15.210000
15097.629883 30841.580078 14.500000
15097.769531 30840.720703 12.490000
15096.650391 30841.050781 14.480000
15096.959961 30841.529297 15.260000
15097.330078 30841.509766 15.160000
15097.650391 30841.710938 15.310000
15097.780273 30840.949219 13.560000
15097.879883 30840.359375 12.190000
15096.730469 30840.869141 14.580000
15097.049805 30841.140625 14.880000
15097.389648 30841.429688 15.480000
15097.589844 30840.060547 12.350000
15097.690430 30841.669922 15.710000
15096.809570 30840.609375 14.530000
15097.129883 30840.939453 14.960000
15097.450195 30841.279297 15.650000
15097.769531 30841.460938 15.750000
15096.879883 30840.419922 14.600000
15096.929688 30839.900391 13.490000
15097.200195 30840.759766 15.040000
15097.530273 30841.089844 15.710000
15097.879883 30841.089844 15.400000
15096.910156 30840.769531 15.810000
15097.009766 30839.699219 13.550000
15097.230469 30840.970703 15.950000
15097.559570 30841.140625 16.290001
15097.969727 30840.789063 15.230000
15098.120117 30840.009766 13.480000
15096.980469 30840.580078 15.870000
15097.299805 30840.789063 16.030001
15097.620117 30841.019531 16.469999
15097.919922 30841.230469 16.620001
15097.070313 30840.279297 15.710000
15097.379883 30840.500000 15.850000
15097.700195 30840.830078 16.490000
15098.009766 30840.960938 16.490000
15098.169922 30840.179688 14.800000
15097.139648 30840.080078 15.750000
15097.309570 30838.560547 12.750000
15097.459961 30840.320313 15.940000
15097.790039 30840.500000 16.260000
15098.139648 30840.480469 15.940000
15097.379883 30838.410156 12.950000
15097.620117 30836.250000 8.930000
15097.500000 30840.359375 16.450001
15098.040039 30836.490234 9.080000
15097.839844 30840.439453 16.570000
15098.330078 30839.750000 14.810000
15097.360352 30839.119141 14.740000
15097.730469 30835.939453 8.900000
15097.570313 30840.189453 16.530001
15097.719727 30839.109375 14.430000
15097.929688 30840.189453 16.450001
15098.599609 30836.369141 9.380000
15098.719727 30835.669922 8.120000
15098.259766 30840.259766 16.290001
15098.400391 30839.589844 14.900000
15098.820313 30837.529297 11.190000
15097.419922 30839.019531 15.010000
15097.660156 30839.880859 16.290001
15097.790039 30839.009766 14.710000
15098.000000 30840.000000 16.459999
15098.330078 30840.080078 16.350000
15097.530273 30838.529297 14.580000
15098.339844 30835.710938 9.370000
15098.830078 30835.669922 9.240000
15098.389648 30839.949219 16.480000
15099.280273 30835.730469 9.030000
15097.610352 30838.320313 14.660000
15097.959961 30838.500000 14.770000
15098.349609 30836.009766 10.410000
15098.480469 30835.189453 8.970000
15098.480469 30837.810547 13.480000
15098.980469 30835.140625 8.830000
15098.490234 30839.650391 16.280001
15099.150391 30836.570313 11.000000
15097.669922 30838.259766 14.980000
15098.040039 30835.500000 10.300000
15098.040039 30838.310547 14.880000
15098.429688 30835.820313 10.620000
15098.589844 30837.490234 13.360000
15099.169922 30834.369141 8.100000
15098.509766 30839.699219 16.780001
15098.139648 30835.199219 10.320000
15098.169922 30837.779297 14.360000
15098.269531 30839.349609 16.860001
15098.599609 30839.449219 16.760000
15098.830078 30838.400391 15.210000
15098.000000 30839.050781 16.830000
15098.259766 30837.509766 14.330000
15098.349609 30839.130859 16.930000
15098.629883 30837.710938 14.650000
15098.679688 30839.199219 16.780001
15098.099609 30836.320313 13.110000
15098.089844 30838.769531 16.840000
15098.450195 30836.630859 13.360000
15098.440430 30838.869141 16.980000
15098.570313 30839.880859 18.240000
15098.769531 30838.980469 16.830000
15098.240234 30835.699219 12.630000
15098.410156 30837.150391 14.630000
15098.549805 30836.349609 13.360000
15098.769531 30837.410156 14.980000
15098.639648 30839.669922 18.240000
15098.169922 30836.529297 14.310000
15098.269531 30835.869141 13.340000
15098.400391 30835.000000 11.950000
15098.490234 30836.980469 14.760000
15098.820313 30835.099609 11.870000
15098.530273 30838.779297 17.620001
15098.839844 30837.230469 15.110000
15098.809570 30839.070313 17.700001
15098.269531 30836.250000 14.320000
15098.540039 30836.919922 15.080000
15098.589844 30838.669922 17.850000
15098.919922 30837.039063 15.230000
15098.940430 30838.650391 17.500000
15098.379883 30835.830078 14.150000
15098.660156 30836.519531 14.900000
15098.580078 30838.880859 18.430000
15099.000000 30836.830078 15.320000
15099.179688 30835.990234 14.100000
15098.870117 30839.050781 18.379999
15099.129883 30837.960938 16.870001
15098.299805 30836.619141 15.670000
15098.570313 30837.230469 16.330000
15098.660156 30838.650391 18.500000
15098.910156 30837.439453 16.610001
15098.959961 30838.779297 18.370001
15099.490234 30836.560547 15.090000
15098.339844 30836.689453 16.160000
15098.660156 30836.960938 16.309999
15098.709961 30838.550781 18.719999
15098.660156 30840.189453 20.730000
15099.030273 30838.619141 18.510000
15098.429688 30836.439453 16.190001
15098.759766 30836.640625 16.240000
15098.839844 30838.109375 18.379999
15099.269531 30836.119141 15.500000
15098.740234 30839.970703 20.660000
15099.070313 30838.580078 18.809999
15098.490234 30836.310547 16.389999
15098.669922 30837.300781 17.530001
15098.889648 30838.019531 18.580000
15099.110352 30838.519531 19.080000
15098.419922 30836.980469 17.639999
15098.610352 30835.890625 16.209999
15098.709961 30837.289063 17.850000
15098.860352 30838.310547 19.360001
15099.080078 30837.320313 17.879999
15099.200195 30838.269531 19.160000
15098.509766 30836.720703 17.639999
15098.690430 30835.679688 16.299999
15098.790039 30837.070313 17.910000
15099.160156 30837.080078 17.879999
15099.269531 30838.089844 19.209999
15099.570313 30836.880859 17.440001
15098.559570 30836.619141 17.860001
15098.900391 30836.720703 17.780001
15099.259766 30836.779297 17.840000
15099.540039 30837.119141 18.100000
15098.599609 30836.669922 18.260000
15098.940430 30836.710938 18.120001
15099.290039 30836.810547 18.219999
15099.660156 30836.740234 17.969999
15098.730469 30836.179688 17.990000
15098.980469 30836.660156 18.389999
15099.330078 30836.750000 18.480000
15099.620117 30837.000000 18.610001
15098.690430 30836.609375 18.840000
15099.059570 30836.490234 18.510000
15099.320313 30836.949219 19.049999
15099.709961 30836.759766 18.670000
15098.799805 30836.179688 18.650000
15099.089844 30836.500000 18.840000
15099.410156 30836.689453 19.059999
15099.790039 30836.580078 18.780001
15099.179688 30836.250000 18.879999
15099.440430 30836.689453 19.379999
15099.849609 30836.419922 18.930000
15099.190430 30836.339844 19.290001
15099.490234 30836.609375 19.600000
15099.870117 30836.449219 19.280001
15099.250000 30836.230469 19.500000
15099.519531 30836.619141 19.920000
15099.879883 30836.519531 19.680000
15100.259766 30835.070313 17.969999
15099.700195 30835.970703 19.500000
15099.959961 30836.320313 19.750000
15100.049805 30836.060547 19.760000
15096.799805 30841.580078 9.050000
15096.429688 30841.630859 9.980000
15096.889648 30841.300781 8.980000
15097.299805 30841.470703 9.020000
15096.110352 30842.830078 14.180000
15096.120117 30841.210938 9.940000
15096.519531 30841.369141 9.960000
15096.980469 30841.070313 9.100000
15097.290039 30842.009766 11.210000
15097.400391 30841.160156 8.920000
15096.179688 30842.529297 13.990000
15096.209961 30840.970703 10.010000
15096.599609 30841.160156 10.080000
15096.259766 30842.289063 13.980000
15096.690430 30840.949219 10.230000
15096.959961 30842.660156 14.540000
15097.120117 30841.019531 10.340000
15097.290039 30842.810547 14.600000
15097.759766 30839.359375 5.420000
15096.339844 30842.039063 13.960000
15096.669922 30842.380859 14.440000
15096.780273 30840.710938 10.270000
15097.049805 30842.369141 14.370000
15097.209961 30840.830078 10.510000
15097.419922 30842.240234 13.700000
15097.830078 30839.359375 6.170000
15096.419922 30841.800781 13.920000
15096.750000 30842.089844 14.290000
15096.910156 30839.919922 8.930000
15097.110352 30842.310547 14.760000
15097.480469 30842.169922 14.090000
15096.490234 30841.669922 14.160000
15096.830078 30841.900391 14.370000
15097.190430 30842.089844 14.770000
15097.519531 30839.199219 7.680000
15097.519531 30842.220703 14.770000
15097.790039 30840.419922 10.350000
15096.559570 30841.560547 14.420000
15096.870117 30842.070313 15.310000
15096.910156 30841.619141 14.250000
15097.259766 30841.919922 14.890000
15097.599609 30841.949219 14.630000
15096.629883 30841.490234 14.770000
15096.669922 30840.910156 13.470000
15096.959961 30841.710938 14.970000
15097.320313 30841.810547 15.140000
15097.690430 30841.699219 14.570000
15097.769531 30841.160156 13.340000
15096.709961 30841.330078 14.930000
15097.040039 30841.490234 14.990000
15097.400391 30841.619141 15.210000
15097.799805 30841.289063 14.170000
15096.780273 30841.119141 14.940000
15097.110352 30841.320313 15.110000
15097.450195 30841.570313 15.600000
15097.570313 30840.669922 13.600000
15097.790039 30841.580078 15.340000
15097.940430 30840.699219 13.340000
15096.860352 30840.859375 14.880000
15097.179688 30841.220703 15.380000
15097.519531 30841.439453 15.800000
15097.839844 30841.550781 15.750000
15096.950195 30840.570313 14.750000
15097.259766 30840.900391 15.170000
15097.349609 30840.150391 13.540000
15097.599609 30841.169922 15.720000
15097.929688 30841.289063 15.660000
15096.980469 30840.839844 15.780000
15097.070313 30839.759766 13.510000
15097.309570 30840.970703 15.780000
15097.650391 30841.160156 16.139999
15097.830078 30839.949219 13.440000
15098.049805 30840.849609 15.180000
15097.049805 30840.710938 15.970000
15097.370117 30840.869141 16.020000
15097.690430 30841.160156 16.580000
15098.009766 30841.240234 16.469999
15098.120117 30840.660156 15.230000
15097.129883 30840.470703 15.910000
15097.429688 30840.789063 16.290001
15097.780273 30840.880859 16.420000
15098.240234 30840.230469 14.720000
15098.400391 30839.369141 12.930000
15097.209961 30840.210938 15.840000
15097.360352 30838.650391 12.790000
15097.530273 30840.349609 15.850000
15097.879883 30840.509766 16.110001
