# .PCD v.7 - Point Cloud Data file format
VERSION .7
FIELDS x y z
SIZE 4 4 4
TYPE F F F
COUNT 1 1 1
WIDTH 1332
HEIGHT 1
POINTS 1332
DATA ascii
15063.769531 30775.720703 14.320000
15065.339844 30773.490234 9.790000
15062.190430 30776.339844 16.360001
15063.679688 30776.429688 14.900000
15062.509766 30776.039063 15.210000
15063.610352 30776.570313 14.740000
15063.259766 30776.380859 14.840000
15063.700195 30775.369141 12.710000
15061.650391 30777.050781 16.959999
15062.400391 30776.199219 15.090000
15063.360352 30776.880859 15.000000
15063.360352 30776.339844 14.200000
15063.549805 30775.599609 12.650000
15062.519531 30776.119141 14.370000
15063.209961 30777.089844 15.010000
15062.879883 30776.880859 14.940000
15064.559570 30774.599609 9.700000
15061.509766 30777.310547 16.559999
15063.059570 30777.310547 14.990000
15062.769531 30777.060547 14.820000
15064.570313 30774.660156 9.180000
15062.070313 30776.730469 14.730000
15063.469727 30776.990234 13.580000
15063.080078 30776.820313 13.690000
15065.509766 30774.419922 7.600000
15062.000000 30777.410156 15.320000
15062.950195 30776.419922 12.920000
15064.620117 30774.679688 8.550000
15061.690430 30777.210938 15.340000
15063.290039 30777.240234 13.700000
15065.379883 30774.630859 7.370000
15061.879883 30777.599609 15.260000
15064.650391 30774.730469 7.970000
15061.580078 30777.380859 15.210000
15063.259766 30777.339844 13.340000
15065.580078 30774.529297 6.380000
15062.219727 30777.300781 13.950000
15064.660156 30774.789063 7.410000
15061.950195 30777.019531 13.790000
15063.969727 30776.769531 11.000000
15062.809570 30777.289063 13.120000
15062.070313 30777.519531 13.930000
15061.809570 30777.230469 13.740000
15064.059570 30776.779297 10.310000
15062.559570 30777.609375 13.340000
15062.589844 30777.060547 12.100000
15061.759766 30777.339844 13.420000
15062.299805 30776.769531 11.910000
15062.830078 30777.970703 13.130000
15061.730469 30777.439453 13.080000
15062.400391 30776.710938 11.120000
15064.169922 30776.859375 9.060000
15062.570313 30777.750000 12.430000
15061.910156 30777.880859 13.090000
15061.540039 30777.689453 13.160000
15063.490234 30775.619141 7.360000
15064.230469 30776.900391 8.410000
15062.389648 30778.000000 12.500000
15061.629883 30778.230469 13.470000
15061.290039 30778.019531 13.460000
15062.549805 30778.470703 12.590000
15062.259766 30778.189453 12.390000
15061.690430 30778.230469 12.830000
15063.009766 30776.279297 7.730000
15062.040039 30778.470703 12.580000
15061.690430 30778.300781 12.370000
15063.200195 30776.150391 6.530000
15065.860352 30775.810547 2.050000
15061.929688 30778.650391 12.450000
15062.759766 30778.640625 10.060000
15062.400391 30778.390625 10.100000
15064.169922 30776.820313 4.600000
15062.650391 30778.830078 9.880000
15064.259766 30776.949219 3.060000
15064.330078 30777.000000 2.140000
15058.940430 30783.060547 14.800000
15058.599609 30782.900391 15.030000
15058.790039 30783.250000 14.890000
15058.480469 30783.070313 14.970000
15058.540039 30783.509766 15.360000
15058.240234 30783.330078 15.460000
15058.320313 30783.740234 15.730000
15058.110352 30783.509766 15.430000
15057.879883 30783.330078 14.910000
15058.339844 30783.000000 12.770000
15057.589844 30783.140625 14.970000
15058.290039 30783.849609 15.300000
15057.969727 30783.689453 15.500000
15057.820313 30783.460938 14.590000
15058.129883 30783.250000 13.070000
15057.509766 30783.279297 14.700000
15057.900391 30782.990234 12.720000
15058.169922 30784.029297 15.310000
15057.959961 30783.800781 14.990000
15058.440430 30783.509766 12.750000
15057.679688 30783.650391 14.630000
15058.040039 30783.410156 12.830000
15057.469727 30783.400391 14.260000
15058.059570 30784.199219 15.230000
15057.799805 30783.990234 15.150000
15058.259766 30783.720703 12.900000
15057.549805 30783.830078 14.680000
15057.280273 30783.630859 14.580000
15058.000000 30784.339844 14.940000
15057.719727 30784.150391 14.930000
15058.049805 30783.960938 13.280000
15057.370117 30784.050781 14.970000
15057.669922 30783.849609 13.350000
15057.160156 30783.810547 14.580000
15057.980469 30784.460938 14.390000
15058.889648 30784.039063 10.090000
15057.610352 30784.310547 14.850000
15057.889648 30784.160156 13.430000
15057.160156 30784.279297 15.450000
15057.509766 30784.060547 13.530000
15057.059570 30783.960938 14.400000
15057.629883 30784.740234 15.550000
15058.040039 30784.560547 13.500000
15057.400391 30784.539063 15.320000
15057.740234 30784.359375 13.530000
15057.099609 30784.410156 15.110000
15056.919922 30784.160156 14.490000
15057.490234 30784.919922 15.620000
15057.299805 30784.699219 15.180000
15056.990234 30784.580078 15.030000
15057.950195 30784.039063 9.430000
15056.750000 30784.359375 14.770000
15057.379883 30783.949219 10.850000
15057.429688 30785.070313 15.330000
15058.469727 30784.650391 9.850000
15057.150391 30784.880859 15.350000
15056.910156 30784.730469 14.750000
15056.639648 30784.529297 14.690000
15057.459961 30785.179688 14.490000
15057.160156 30784.990234 14.590000
15056.809570 30784.890625 14.590000
15057.690430 30784.449219 9.180000
15056.559570 30784.679688 14.400000
15057.620117 30784.039063 7.340000
15057.190430 30785.410156 15.290000
15058.309570 30785.029297 9.080000
15057.040039 30785.169922 14.570000
15056.759766 30785.029297 14.140000
15057.530273 30784.660156 9.210000
15056.400391 30784.869141 14.630000
15057.120117 30785.560547 14.980000
15058.129883 30785.250000 9.230000
15056.799805 30785.390625 15.230000
15056.580078 30785.230469 14.440000
15056.269531 30785.050781 14.670000
15057.200195 30784.560547 8.090000
15056.910156 30785.759766 15.460000
15058.139648 30785.419922 8.310000
15056.599609 30785.589844 15.680000
15056.330078 30785.460938 15.300000
15056.969727 30785.199219 11.000000
15056.150391 30785.230469 14.660000
15057.009766 30784.789063 8.300000
15056.759766 30785.939453 15.630000
15056.500000 30785.750000 15.520000
15056.059570 30786.730469 13.450000
15055.519531 30786.640625 15.150000
15055.740234 30786.619141 13.100000
15055.589844 30786.390625 11.720000
15056.019531 30787.099609 14.970000
15055.669922 30786.910156 15.620000
15055.400391 30786.810547 15.160000
15055.700195 30786.800781 12.290000
15055.099609 30786.619141 15.430000
15055.379883 30786.589844 12.420000
15055.950195 30787.279297 14.650000
15055.669922 30787.089844 14.560000
15055.250000 30786.970703 15.430000
15054.990234 30786.789063 15.390000
15055.299805 30786.779297 11.880000
15055.809570 30787.449219 14.740000
15056.469727 30787.580078 9.410000
15055.519531 30787.250000 14.910000
15055.120117 30787.140625 15.500000
15054.870117 30786.949219 15.390000
15055.370117 30786.980469 9.410000
15055.700195 30787.619141 14.650000
15055.400391 30787.419922 14.900000
15055.000000 30787.300781 15.540000
15054.759766 30787.119141 15.210000
15055.570313 30787.789063 14.730000
15055.280273 30787.589844 14.850000
15054.969727 30787.490234 14.570000
15054.669922 30787.289063 14.880000
15055.110352 30787.400391 8.930000
15055.440430 30787.960938 14.830000
15055.169922 30787.769531 14.730000
15054.839844 30787.660156 14.620000
15055.290039 30787.849609 9.120000
15055.299805 30788.119141 15.040000
15055.030273 30787.929688 14.890000
15054.730469 30787.839844 14.540000
15054.490234 30787.660156 13.920000
15055.160156 30788.279297 15.200000
15054.910156 30788.099609 14.900000
15055.629883 30788.539063 6.590000
15054.370117 30787.839844 13.860000
15055.059570 30788.460938 15.070000
15055.769531 30788.990234 7.250000
15054.780273 30788.259766 15.020000
15055.429688 30788.750000 7.000000
15054.240234 30788.009766 13.950000
15054.940430 30788.630859 14.970000
15055.250000 30788.900391 11.450000
15055.280273 30788.990234 6.830000
15054.450195 30788.439453 13.160000
15054.129883 30788.210938 13.580000
15055.120117 30789.099609 11.460000
15055.459961 30789.439453 7.270000
15054.660156 30788.730469 13.350000
15054.309570 30788.619141 13.250000
15054.019531 30788.410156 13.220000
15054.950195 30789.259766 11.740000
15054.530273 30788.900391 13.420000
15054.190430 30788.800781 13.230000
15053.889648 30788.589844 13.250000
15054.799805 30789.429688 12.050000
15054.410156 30789.089844 13.350000
15054.049805 30788.970703 13.340000
15053.759766 30788.759766 13.380000
15054.559570 30789.460938 13.590000
15054.660156 30789.609375 12.130000
15054.280273 30789.269531 13.370000
15054.360352 30789.400391 11.980000
15053.919922 30789.150391 13.390000
15053.629883 30788.919922 13.640000
15054.429688 30789.630859 13.650000
15054.139648 30789.439453 13.530000
15054.230469 30789.619141 11.780000
15053.500000 30789.089844 13.730000
15054.360352 30789.939453 12.610000
15053.370117 30789.259766 13.840000
15054.240234 30790.160156 12.330000
15054.360352 30790.439453 10.030000
15054.089844 30790.380859 8.560000
15053.530273 30789.660156 13.740000
15053.240234 30789.429688 13.880000
15054.059570 30790.210938 13.340000
15053.769531 30789.990234 13.420000
15053.400391 30789.820313 13.830000
15053.120117 30789.599609 14.000000
15053.919922 30790.359375 13.600000
15053.629883 30790.150391 13.640000
15053.740234 30790.660156 9.740000
15053.280273 30790.000000 13.860000
15052.980469 30789.509766 16.260000
15052.990234 30789.759766 14.110000
15053.799805 30790.560547 13.500000
15053.500000 30790.330078 13.650000
15053.120117 30789.730469 17.160000
15053.150391 30790.160156 13.960000
15052.870117 30789.599609 16.790001
15052.870117 30789.830078 14.930000
15053.669922 30790.750000 13.380000
15053.370117 30790.509766 13.630000
15053.009766 30789.910156 17.010000
15053.019531 30790.339844 13.930000
15052.759766 30789.750000 16.830000
15053.540039 30790.929688 13.440000
15053.250000 30790.679688 13.650000
15052.900391 30790.039063 17.150000
15052.900391 30790.500000 14.090000
15052.650391 30789.869141 17.090000
15053.410156 30791.109375 13.420000
15053.120117 30790.880859 13.530000
15052.790039 30790.169922 17.350000
15052.540039 30790.019531 17.129999
15053.280273 30791.289063 13.390000
15052.990234 30791.050781 13.570000
15052.679688 30790.269531 17.650000
15052.429688 30790.160156 17.240000
15053.150391 30791.449219 13.530000
15052.860352 30791.250000 13.490000
15052.570313 30790.419922 17.670000
15052.509766 30791.060547 13.880000
15052.320313 30790.320313 17.190001
15053.019531 30791.640625 13.510000
15052.730469 30791.429688 13.520000
15052.700195 30792.179688 9.350000
15052.389648 30791.210938 14.080000
15052.200195 30790.550781 16.799999
15052.120117 30790.939453 14.440000
15052.889648 30791.839844 13.400000
15052.610352 30791.529297 13.950000
15052.259766 30791.380859 14.120000
15052.089844 30790.669922 17.000000
15051.990234 30791.150391 14.250000
15052.759766 30792.050781 13.260000
15052.469727 30791.810547 13.440000
15052.240234 30790.939453 17.320000
15052.139648 30791.560547 14.100000
15051.990234 30790.789063 17.160000
15051.860352 30791.339844 14.180000
15052.629883 30792.279297 13.070000
15052.570313 30793.349609 8.030000
15052.339844 30792.019531 13.280000
15052.009766 30791.720703 14.210000
15051.730469 30791.519531 14.140000
15052.490234 30792.500000 12.930000
15052.209961 30792.210938 13.270000
15051.849609 30792.070313 13.350000
15051.530273 30793.660156 5.630000
15051.610352 30791.660156 14.340000
15052.360352 30792.710938 12.840000
15052.059570 30792.480469 12.880000
15051.780273 30791.980469 14.660000
15051.700195 30792.349609 12.940000
15051.469727 30791.890625 14.110000
15051.919922 30792.720703 12.670000
15051.599609 30792.390625 13.580000
15051.299805 30792.199219 13.510000
15051.440430 30792.669922 13.190000
15051.160156 30792.429688 13.280000
15051.299805 30792.900391 12.990000
15051.030273 30792.589844 13.390000
15051.160156 30793.089844 12.990000
15050.889648 30792.810547 13.260000
15051.030273 30793.269531 13.060000
15050.750000 30793.000000 13.260000
15050.889648 30793.460938 13.060000
15050.620117 30793.189453 13.270000
15051.120117 30793.789063 13.030000
15050.769531 30793.609375 13.210000
15050.459961 30793.419922 13.120000
15051.000000 30793.910156 13.280000
15050.629883 30793.800781 13.230000
15050.330078 30793.599609 13.180000
15050.849609 30794.140625 13.160000
15050.490234 30794.019531 13.170000
15050.190430 30793.789063 13.200000
15065.009766 30773.710938 17.760000
15064.610352 30774.199219 18.150000
15064.730469 30774.130859 17.639999
15064.650391 30774.259766 17.440001
15064.549805 30773.820313 17.000000
15064.509766 30773.310547 16.209999
15064.580078 30774.400391 17.230000
15064.450195 30773.980469 16.889999
15064.320313 30773.580078 16.280001
15064.540039 30774.500000 16.959999
15064.370117 30774.130859 16.709999
15064.129883 30773.839844 16.330000
15064.740234 30774.359375 16.290001
15064.349609 30774.210938 16.410000
15063.990234 30774.050781 16.280001
15063.469727 30774.070313 16.650000
15064.419922 30772.949219 14.610000
15064.419922 30774.750000 16.480000
15064.070313 30774.570313 16.590000
15063.769531 30774.349609 16.350000
15063.330078 30774.279297 16.570000
15064.309570 30773.130859 14.470000
15064.769531 30774.449219 15.540000
15063.929688 30774.769531 16.520000
15062.049805 30776.330078 19.540001
15063.509766 30774.689453 16.520000
15061.780273 30776.150391 19.510000
15064.080078 30773.449219 14.590000
15064.330078 30774.960938 15.940000
15064.009766 30774.750000 16.020000
15064.230469 30773.939453 14.700000
15061.830078 30776.119141 19.080000
15064.080078 30775.279297 16.030001
15063.709961 30775.109375 16.260000
15064.360352 30774.429688 14.980000
15061.849609 30776.640625 19.330000
15064.080078 30774.169922 14.640000
15061.750000 30776.259766 18.950001
15064.769531 30774.650391 14.450000
15064.320313 30774.539063 14.690000
15064.030273 30774.289063 14.360000
15061.679688 30776.380859 18.780001
15064.900391 30774.589844 13.810000
15063.080078 30775.900391 16.879999
15062.120117 30776.439453 18.150000
15061.750000 30776.339844 18.299999
15063.860352 30775.699219 15.520000
15062.280273 30776.789063 18.280001
15062.870117 30776.169922 17.010000
15061.709961 30776.929688 18.730000
15061.519531 30776.650391 18.490000
15063.669922 30775.949219 15.610000
15062.860352 30776.240234 16.700001
15062.320313 30776.320313 17.059999
15061.589844 30776.609375 17.990000
15064.030273 30775.660156 14.350000
15064.730469 30774.369141 12.230000
15062.389648 30776.289063 16.540001
15061.940430 30776.259766 16.850000
15063.230469 30774.789063 13.770000
15063.839844 30775.919922 14.470000
15064.790039 30774.380859 11.670000
15064.990234 30773.550781 10.100000
15061.910156 30776.339844 16.559999
15063.580078 30776.230469 14.720000
15064.070313 30775.189453 12.740000
15064.809570 30774.429688 11.190000
15062.599609 30776.179688 15.310000
15061.730469 30776.589844 16.620001
15063.339844 30776.539063 14.940000
15063.929688 30775.400391 12.670000
15061.750000 30777.140625 16.959999
15061.440430 30776.970703 16.990000
15063.160156 30776.779297 14.980000
15063.809570 30775.599609 12.600000
15062.719727 30776.169922 14.230000
15061.490234 30776.960938 16.510000
15063.019531 30776.980469 14.960000
15064.860352 30774.619141 9.720000
15062.469727 30776.490234 14.460000
15061.370117 30777.140625 16.420000
15061.879883 30776.570313 15.100000
15064.889648 30774.660156 9.150000
15065.530273 30774.029297 7.680000
15062.410156 30776.619141 14.220000
15061.839844 30776.669922 14.810000
15063.230469 30776.939453 13.720000
15065.610352 30774.720703 7.870000
15062.200195 30777.400391 15.340000
15061.740234 30777.369141 15.500000
15062.000000 30776.539063 13.970000
15065.900391 30774.539063 6.720000
15065.620117 30774.109375 6.400000
15061.650391 30777.529297 15.340000
15061.889648 30776.730469 13.860000
15062.400391 30777.339844 14.060000
15062.080078 30777.140625 13.810000
15062.809570 30777.550781 13.480000
15062.219727 30777.580078 14.090000
15062.530273 30776.750000 12.190000
15062.660156 30777.769531 13.460000
15062.790039 30777.109375 12.230000
15061.940430 30777.419922 13.320000
15061.650391 30777.160156 13.200000
15061.790039 30777.630859 13.280000
15064.700195 30774.720703 5.140000
15061.469727 30777.410156 13.250000
15062.620117 30777.970703 12.770000
15062.370117 30777.650391 12.420000
15061.639648 30777.849609 13.300000
15061.299805 30777.650391 13.310000
15063.129883 30775.710938 7.880000
15061.820313 30778.240234 13.520000
15061.450195 30778.109375 13.400000
15063.019531 30775.890625 7.630000
15062.400391 30778.320313 12.480000
15061.919922 30778.220703 12.800000
15063.610352 30776.050781 6.510000
15062.860352 30776.130859 7.570000
15062.160156 30778.609375 12.660000
15064.280273 30776.800781 6.700000
15061.860352 30778.359375 12.530000
15061.410156 30777.720703 11.530000
15064.330078 30776.849609 5.980000
15060.290039 30778.929688 14.610000
15064.410156 30776.900391 5.200000
15060.200195 30779.089844 14.440000
15062.580078 30778.529297 10.070000
15064.459961 30776.970703 4.460000
15060.860352 30778.480469 11.770000
15064.530273 30777.019531 3.640000
15059.860352 30780.029297 10.940000
15059.730469 30780.230469 10.850000
15058.690430 30782.990234 15.070000
15058.570313 30783.160156 15.000000
15058.290039 30783.429688 15.590000
15058.179688 30783.599609 15.490000
15057.919922 30783.400391 15.440000
15057.700195 30783.220703 14.890000
15058.030273 30783.789063 15.630000
15057.980469 30783.460938 14.570000
15058.320313 30783.250000 13.070000
15057.610352 30783.369141 14.680000
15058.019531 30783.080078 12.680000
15057.959961 30783.929688 15.380000
15058.540039 30783.619141 12.830000
15057.849609 30783.640625 14.590000
15057.530273 30783.519531 14.440000
15057.269531 30783.300781 14.320000
15057.799805 30784.119141 15.530000
15058.349609 30783.839844 13.020000
15057.700195 30783.839844 14.720000
15057.370117 30783.720703 14.640000
15057.169922 30783.460938 14.170000
15057.929688 30784.169922 14.380000
15057.509766 30784.050781 15.030000
15057.299805 30783.859375 14.300000
15056.980469 30783.689453 14.510000
15057.700195 30784.400391 14.830000
15058.030273 30784.240234 13.260000
15057.299805 30784.269531 15.440000
15057.669922 30784.070313 13.560000
15057.190430 30784.029297 14.200000
15056.849609 30783.869141 14.480000
15057.400391 30784.650391 15.710000
15057.230469 30784.419922 15.190000
15057.049805 30784.220703 14.270000
15057.660156 30783.869141 10.890000
15056.809570 30783.990234 14.000000
15057.080078 30783.810547 12.390000
15057.339844 30784.800781 15.410000
15057.089844 30784.599609 15.290000
15056.839844 30784.439453 14.750000
15056.650391 30784.189453 14.200000
15057.259766 30784.949219 15.180000
15057.049805 30784.730469 14.830000
15056.730469 30784.619141 14.710000
15056.549805 30784.359375 14.010000
15056.990234 30784.089844 11.220000
15057.299805 30785.060547 14.340000
15057.019531 30784.859375 14.260000
15057.250000 30784.759766 13.010000
15057.929688 30784.470703 9.120000
15056.639648 30784.769531 14.470000
15056.349609 30784.580078 14.500000
15057.099609 30785.259766 14.710000
15056.929688 30785.029297 14.050000
15056.490234 30784.960938 14.640000
15056.969727 30784.730469 11.570000
15056.219727 30784.759766 14.590000
15057.269531 30784.169922 7.400000
15056.790039 30785.500000 15.700000
15056.750000 30785.230469 14.370000
15056.389648 30785.130859 14.480000
15057.299805 30784.720703 8.500000
15056.089844 30784.939453 14.620000
15056.549805 30784.689453 11.340000
15057.129883 30784.390625 7.210000
15056.700195 30785.660156 15.540000
15056.490234 30785.449219 15.180000
15056.320313 30785.279297 14.080000
15056.639648 30785.150391 11.950000
15057.169922 30784.929688 8.310000
15056.230469 30784.980469 12.650000
15056.900391 30784.650391 7.770000
15056.589844 30785.820313 15.470000
15056.330078 30785.630859 15.390000
15056.179688 30785.460938 14.190000
15056.450195 30785.359375 12.240000
15057.139648 30784.689453 4.720000
15056.469727 30785.990234 15.500000
15056.349609 30785.759766 14.510000
15056.070313 30785.630859 14.020000
15055.969727 30785.359375 12.590000
15056.440430 30786.140625 14.930000
15056.129883 30785.960938 15.160000
15055.780273 30785.859375 15.330000
15055.980469 30785.800781 13.810000
15055.700195 30785.599609 13.760000
15056.299805 30786.310547 15.030000
15055.980469 30786.130859 15.400000
15055.870117 30785.980469 13.650000
15056.120117 30786.490234 15.430000
15055.860352 30786.300781 15.420000
15056.110352 30786.269531 13.560000
15055.740234 30786.160156 13.640000
15055.980469 30786.109375 11.730000
15055.799805 30785.859375 10.570000
15056.019531 30786.660156 15.320000
15055.780273 30786.460938 15.090000
15056.000000 30786.439453 13.410000
15055.610352 30786.339844 13.760000
15055.839844 30786.300781 11.720000
15055.660156 30786.060547 10.540000
15055.900391 30786.000000 8.230000
15055.870117 30786.820313 15.580000
15055.660156 30786.630859 15.090000
15055.910156 30786.619141 13.130000
15055.549805 30786.509766 13.130000
15055.700195 30786.500000 11.750000
15056.030273 30786.470703 8.850000
15055.519531 30786.259766 10.510000
15055.750000 30786.220703 8.200000
15055.740234 30786.990234 15.670000
15055.549805 30786.800781 15.040000
15055.900391 30786.810547 12.160000
15055.190430 30786.699219 15.290000
15055.509766 30786.689453 12.270000
15055.169922 30786.480469 12.740000
15055.320313 30786.470703 11.150000
15055.750000 30787.169922 14.670000
15055.379883 30786.970703 15.440000
15055.059570 30786.859375 15.380000
15055.160156 30786.669922 11.290000
15055.589844 30787.330078 14.980000
15056.259766 30787.470703 9.520000
15055.250000 30787.130859 15.520000
15055.919922 30787.230469 9.490000
15054.959961 30787.029297 15.210000
15055.530273 30787.109375 9.340000
15055.110352 30786.869141 10.320000
15055.469727 30787.500000 15.020000
15055.129883 30787.300781 15.620000
15054.870117 30787.210938 14.880000
15055.080078 30787.080078 8.920000
15055.389648 30787.689453 14.570000
15055.120117 30787.490234 14.550000
15055.259766 30787.529297 9.040000
15054.620117 30787.220703 13.010000
15055.250000 30787.849609 14.800000
15054.990234 30787.660156 14.570000
15055.519531 30787.880859 9.090000
15054.660156 30787.560547 14.490000
15055.110352 30788.009766 14.960000
15054.879883 30787.839844 14.480000
15054.570313 30787.750000 13.980000
15054.370117 30787.589844 12.860000
15054.969727 30788.169922 15.160000
15055.769531 30788.669922 7.030000
15054.450195 30787.929688 13.960000
15054.179688 30787.730469 13.850000
15054.870117 30788.349609 14.940000
15055.610352 30788.900391 7.000000
15054.320313 30788.099609 14.010000
15055.450195 30789.119141 7.000000
15054.610352 30788.449219 13.170000
15055.099609 30788.880859 6.800000
15054.250000 30788.330078 13.140000
15053.950195 30788.109375 13.350000
15054.759766 30788.820313 13.430000
15054.919922 30788.980469 11.530000
15054.480469 30788.619141 13.250000
15054.120117 30788.500000 13.250000
15053.809570 30788.269531 13.650000
15054.629883 30789.000000 13.400000
15054.349609 30788.810547 13.190000
15053.990234 30788.689453 13.250000
15053.669922 30788.429688 13.900000
15054.500000 30789.179688 13.450000
15054.219727 30788.980469 13.310000
15053.849609 30788.849609 13.460000
15053.559570 30788.630859 13.660000
15054.370117 30789.349609 13.550000
15054.080078 30789.150391 13.420000
15053.719727 30789.019531 13.530000
15053.419922 30788.779297 13.990000
15054.230469 30789.519531 13.680000
15054.339844 30789.710938 11.960000
15053.589844 30789.179688 13.820000
15053.299805 30788.970703 13.850000
15053.459961 30789.339844 13.930000
15053.169922 30789.140625 13.910000
15053.990234 30789.919922 13.330000
15054.240234 30790.509766 8.630000
15053.690430 30789.660156 13.720000
15053.330078 30789.519531 13.930000
15053.049805 30789.300781 14.110000
15053.860352 30790.080078 13.520000
15053.559570 30789.839844 13.740000
15053.200195 30789.699219 13.920000
15052.919922 30789.449219 14.340000
15053.719727 30790.230469 13.690000
15053.429688 30790.019531 13.750000
15053.040039 30789.529297 16.620001
15053.070313 30789.830078 14.250000
15052.780273 30789.359375 16.540001
15053.599609 30790.419922 13.630000
15053.219727 30789.720703 17.139999
15053.299805 30790.179688 13.830000
15052.919922 30789.669922 16.719999
15052.669922 30789.550781 16.240000
15053.469727 30790.589844 13.690000
15053.110352 30789.890625 17.040001
15053.179688 30790.369141 13.810000
15052.809570 30789.800781 16.950001
15052.559570 30789.669922 16.540001
15053.339844 30790.769531 13.690000
15053.040039 30790.500000 14.080000
15052.700195 30789.939453 17.070000
15052.700195 30790.339844 14.370000
15052.450195 30789.820313 16.629999
15053.209961 30790.960938 13.600000
15052.889648 30790.140625 17.389999
15052.589844 30790.050781 17.360001
15052.339844 30789.949219 16.790001
15052.290039 30790.339844 14.230000
15053.080078 30791.140625 13.640000
15052.780273 30790.250000 17.660000
15052.480469 30790.230469 17.200001
15052.230469 30790.080078 17.010000
15052.950195 30791.339844 13.530000
15052.669922 30790.410156 17.650000
15052.660156 30791.119141 13.540000
15052.370117 30790.380859 17.230000
15052.110352 30790.259766 16.889999
15052.049805 30790.660156 14.380000
15052.820313 30791.529297 13.440000
15052.540039 30791.230469 13.980000
15052.250000 30790.599609 16.879999
15052.190430 30791.080078 14.150000
15052.000000 30790.400391 16.990000
15051.919922 30790.839844 14.330000
15052.690430 30791.750000 13.310000
15052.410156 30791.349609 14.290000
15052.139648 30790.720703 17.059999
15052.070313 30791.230469 14.280000
15051.900391 30790.539063 17.080000
15051.790039 30791.019531 14.310000
15052.559570 30791.929688 13.310000
15052.280273 30791.580078 14.010000
15052.030273 30790.849609 17.180000
15051.940430 30791.419922 14.240000
15051.740234 30790.869141 16.090000
15051.660156 30791.210938 14.260000
15052.429688 30792.119141 13.270000
15052.160156 30791.740234 14.090000
15051.809570 30791.619141 14.110000
15051.540039 30791.390625 14.240000
15052.299805 30792.330078 13.170000
15052.009766 30792.089844 13.290000
15051.809570 30793.679688 5.760000
15051.690430 30791.740234 14.380000
15051.530273 30791.109375 16.559999
15051.389648 30791.630859 13.940000
15052.160156 30792.609375 12.770000
15051.860352 30792.380859 12.820000
15051.530273 30792.089844 13.570000
15051.419922 30791.230469 16.719999
15051.240234 30791.880859 13.570000
15051.750000 30792.429688 13.420000
15051.400391 30792.279297 13.580000
15051.120117 30792.029297 13.750000
15051.629883 30792.519531 13.830000
15051.250000 30792.529297 13.260000
15050.980469 30792.250000 13.600000
15051.459961 30792.919922 12.940000
15051.110352 30792.730469 13.220000
15050.839844 30792.439453 13.550000
15051.320313 30793.109375 12.940000
15050.980469 30792.929688 13.180000
15050.709961 30792.640625 13.480000
15051.190430 30793.300781 12.960000
15050.839844 30793.119141 13.160000
15050.549805 30792.880859 13.260000
15051.059570 30793.480469 13.010000
15050.700195 30793.300781 13.200000
15050.410156 30793.080078 13.220000
15051.219727 30793.859375 13.150000
15050.929688 30793.650391 13.120000
15050.549805 30793.550781 13.020000
15050.269531 30793.289063 13.170000
15051.089844 30794.019531 13.240000
15050.790039 30793.830078 13.130000
15050.429688 30793.689453 13.200000
15050.290039 30793.890625 13.180000
15064.830078 30773.599609 17.299999
15064.490234 30774.019531 17.629999
15064.629883 30773.929688 17.040001
15064.490234 30773.519531 16.629999
15064.400391 30774.220703 17.139999
15064.639648 30773.410156 15.990000
15064.040039 30773.509766 16.340000
15064.290039 30774.400391 17.010000
15064.099609 30774.050781 16.750000
15063.929688 30773.689453 16.250000
15064.129883 30774.630859 16.980000
15064.120117 30774.080078 16.379999
15063.900391 30773.779297 15.980000
15064.200195 30772.820313 14.540000
15064.320313 30774.500000 16.309999
15063.980469 30774.300781 16.309999
15063.580078 30774.199219 16.260000
15064.440430 30773.230469 14.440000
15061.440430 30776.119141 20.010000
15064.070313 30773.029297 14.460000
15064.129883 30774.750000 16.290001
15063.870117 30774.480469 16.180000
15061.790039 30776.250000 19.570000
15063.370117 30774.490234 16.340000
15061.450195 30776.140625 19.690001
15063.900391 30773.269531 14.460000
15064.160156 30774.779297 15.870000
15063.679688 30774.730469 16.200001
15061.769531 30776.320313 19.320000
15063.250000 30774.669922 16.209999
15064.169922 30773.650391 14.310000
15061.459961 30776.179688 19.379999
15063.849609 30775.169922 16.120001
15063.690430 30774.779297 15.820000
15064.219727 30774.220703 14.770000
15061.959961 30776.150391 18.629999
15061.459961 30776.210938 19.049999
15063.709961 30775.369141 16.110001
15064.070313 30774.449219 14.710000
15061.629883 30776.570313 19.010000
15061.500000 30776.210938 18.650000
15064.509766 30774.640625 14.100000
15064.059570 30774.509766 14.350000
15061.830078 30776.390625 18.250000
15061.490234 30776.269531 18.370001
15064.679688 30774.539063 13.400000
15062.030273 30776.699219 18.299999
15062.719727 30775.970703 16.809999
15061.509766 30776.789063 18.650000
15061.410156 30776.400391 18.209999
15062.929688 30776.339844 16.740000
15063.480469 30775.800781 15.560000
15062.440430 30776.330078 17.139999
15061.389648 30776.970703 18.590000
15061.450195 30776.400391 17.790001
15064.790039 30774.580078 12.390000
15062.419922 30776.400391 16.820000
15062.110352 30776.240234 16.660000
15061.459961 30776.439453 17.430000
15063.690430 30775.730469 14.350000
15064.219727 30774.619141 12.420000
15062.080078 30776.330078 16.370001
15061.639648 30776.279297 16.639999
15064.549805 30774.349609 11.280000
15062.440430 30776.000000 15.130000
15061.379883 30776.619141 16.900000
15063.169922 30776.369141 14.830000
15063.740234 30775.250000 12.670000
15061.530273 30777.029297 16.950001
15061.230469 30776.839844 16.930000
15063.269531 30776.349609 14.230000
15063.580078 30775.490234 12.640000
15062.469727 30776.080078 14.280000
15061.160156 30776.960938 16.700001
15062.799805 30776.869141 14.900000
15064.549805 30774.580078 9.870000
15065.530273 30773.599609 7.630000
15061.410156 30777.259766 16.500000
15061.160156 30777.009766 16.340000
15062.669922 30777.070313 14.830000
15064.589844 30774.619141 9.320000
15061.950195 30776.750000 14.770000
15061.040039 30777.199219 16.260000
15061.690430 30776.470703 14.600000
15065.519531 30774.470703 7.560000
15062.940430 30776.330078 12.970000
15064.629883 30774.660156 8.730000
15061.620117 30777.160156 15.240000
15061.019531 30777.259766 15.940000
15065.360352 30774.710938 7.420000
15061.839844 30777.490234 15.280000
15061.500000 30777.330078 15.120000
15061.730469 30776.539063 13.660000
15065.580078 30774.609375 6.390000
15061.650391 30777.740234 15.390000
15062.259766 30777.140625 13.840000
15065.290039 30774.189453 6.080000
15061.900391 30776.990234 13.690000
15061.580078 30776.759766 13.650000
15062.070313 30776.220703 12.310000
15062.690430 30777.349609 13.220000
15062.089844 30777.380859 13.870000
15061.740234 30777.210938 13.680000
15062.309570 30776.630859 12.150000
15061.759766 30776.619141 12.680000
15062.469727 30777.630859 13.350000
15062.559570 30777.000000 12.210000
15061.700195 30777.320313 13.370000
15062.240234 30776.769531 11.880000
15061.500000 30776.960938 12.980000
15061.679688 30777.410156 12.970000
15062.360352 30776.720703 11.080000
15061.269531 30777.269531 13.160000
15062.480469 30777.769531 12.470000
15061.929688 30777.740234 13.000000
15061.469727 30777.689453 13.130000
15061.099609 30777.509766 13.210000
15061.900391 30778.380859 13.620000
15062.290039 30778.029297 12.540000
15061.639648 30778.089844 13.390000
15061.219727 30778.000000 13.410000
15061.209961 30777.449219 12.410000
15062.820313 30775.759766 7.570000
15061.769531 30778.570313 13.560000
15062.200195 30778.189453 12.350000
15061.509766 30778.289063 13.330000
15063.000000 30776.320313 7.720000
15060.259766 30778.509766 14.920000
15062.660156 30775.990234 7.470000
15061.959961 30778.490234 12.600000
15061.690430 30778.199219 12.360000
15063.209961 30776.199219 6.500000
15061.200195 30777.589844 11.480000
15061.849609 30778.669922 12.470000
15062.709961 30776.099609 6.150000
15064.089844 30776.859375 5.480000
15059.919922 30779.039063 14.640000
15064.169922 30776.910156 4.670000
15059.870117 30779.150391 14.330000
15060.650391 30778.349609 11.730000
15064.240234 30776.970703 3.840000
15064.280273 30777.060547 3.120000
15059.740234 30779.470703 13.320000
15059.610352 30779.660156 13.250000
15059.480469 30780.150391 10.950000
15058.110352 30783.300781 15.430000
15058.030273 30783.449219 15.260000
15057.790039 30783.240234 15.080000
15058.330078 30782.890625 12.710000
15057.480469 30783.109375 14.900000
15057.889648 30783.640625 15.310000
15057.750000 30783.359375 14.680000
15058.129883 30783.119141 12.950000
15057.809570 30782.970703 12.700000
15057.900391 30783.740234 14.720000
15058.330078 30783.509766 12.830000
15057.620117 30783.539063 14.680000
15058.019531 30783.300781 12.810000
15057.360352 30783.380859 14.250000
15057.080078 30783.169922 14.190000
15057.750000 30783.929688 14.820000
15058.160156 30783.720703 12.970000
15057.509766 30783.710938 14.610000
15057.179688 30783.589844 14.520000
15056.959961 30783.349609 14.130000
15058.110352 30782.500000 7.860000
15057.580078 30784.130859 15.020000
15057.879883 30783.980469 13.610000
15057.330078 30783.919922 14.870000
15057.110352 30783.730469 14.190000
15056.740234 30783.599609 14.650000
15057.169922 30783.289063 12.240000
15057.459961 30784.300781 15.010000
15057.790039 30784.140625 13.390000
15057.330078 30784.029297 14.220000
15057.000000 30783.910156 14.110000
15056.669922 30783.740234 14.340000
15057.219727 30784.529297 15.550000
15057.059570 30784.279297 14.950000
15058.459961 30783.560547 7.730000
15056.830078 30784.109375 14.310000
15057.429688 30783.759766 10.960000
15056.549805 30783.910156 14.270000
15056.879883 30783.689453 12.320000
15057.150391 30784.679688 15.310000
15056.969727 30784.439453 14.770000
15058.019531 30783.919922 9.170000
15056.690430 30784.300781 14.430000
15056.490234 30784.050781 13.880000
15057.009766 30784.849609 15.390000
15056.849609 30784.609375 14.800000
15056.530273 30784.500000 14.640000
15056.349609 30784.240234 13.960000
15056.790039 30783.970703 11.140000
15057.080078 30784.949219 14.360000
15058.070313 30784.589844 9.060000
15056.730469 30784.789063 14.760000
15057.719727 30784.349609 9.130000
15056.440430 30784.650391 14.410000
15056.379883 30784.330078 12.920000
15056.919922 30785.140625 14.560000
15056.690430 30784.929688 14.250000
15056.290039 30784.839844 14.620000
15056.780273 30784.609375 11.490000
15057.059570 30784.060547 7.380000
15056.669922 30785.359375 15.250000
15056.549805 30785.109375 14.330000
15056.160156 30785.019531 14.610000
15057.070313 30784.619141 8.630000
15056.129883 30784.699219 12.890000
15056.339844 30784.580078 11.370000
15056.490234 30785.539063 15.550000
15056.299805 30785.330078 15.040000
15056.980469 30785.099609 10.920000
15056.070313 30785.179688 14.380000
15056.950195 30784.830078 8.410000
15055.959961 30784.900391 13.140000
15056.650391 30784.550781 8.010000
15056.389648 30785.710938 15.410000
15056.309570 30785.460938 14.200000
15056.250000 30785.250000 12.210000
15057.309570 30784.849609 4.800000
15056.280273 30785.869141 15.340000
15056.169922 30785.640625 14.320000
15055.870117 30785.519531 14.040000
15056.070313 30785.449219 12.530000
15055.769531 30785.240234 12.570000
15056.190430 30786.039063 15.220000
15055.969727 30785.839844 14.870000
15055.769531 30785.689453 13.850000
15055.549805 30785.460938 13.290000
15056.040039 30786.210938 15.370000
15055.759766 30786.019531 15.510000
15055.660156 30785.859375 13.680000
15055.900391 30786.380859 15.560000
15055.679688 30786.179688 15.200000
15055.879883 30786.160156 13.720000
15055.769531 30786.000000 11.720000
15055.589844 30785.740234 10.520000
15055.830078 30786.539063 15.230000
15055.580078 30786.349609 15.100000
15055.790039 30786.330078 13.450000
15055.400391 30786.220703 13.800000
15055.629883 30786.189453 11.750000
15055.099609 30786.029297 13.880000
15055.450195 30785.949219 10.550000
15055.669922 30786.710938 15.510000
15055.969727 30786.720703 13.320000
15055.459961 30786.519531 15.050000
15055.679688 30786.509766 13.270000
15055.509766 30786.380859 11.620000
15055.820313 30786.359375 8.800000
15055.309570 30786.150391 10.510000
15055.540039 30786.109375 8.220000
15055.559570 30786.880859 15.410000
15055.320313 30786.689453 15.200000
15055.620117 30786.699219 12.720000
15054.980469 30786.589844 15.340000
15055.349609 30786.580078 11.840000
15055.000000 30786.369141 12.240000
15055.500000 30787.050781 14.960000
15055.209961 30786.859375 15.100000
15055.240234 30786.769531 11.620000
15054.820313 30786.560547 12.800000
15054.969727 30786.550781 11.120000
15055.370117 30787.220703 15.010000
15056.049805 30787.359375 9.480000
15055.049805 30787.019531 15.480000
15054.780273 30786.919922 14.860000
15055.309570 30786.990234 9.390000
15054.870117 30786.750000 10.600000
15055.250000 30787.390625 15.100000
15054.940430 30787.189453 15.370000
15054.990234 30787.169922 11.240000
15054.440430 30786.910156 14.270000
15054.860352 30786.970703 8.970000
15055.169922 30787.570313 14.660000
15054.919922 30787.380859 14.450000
15055.059570 30787.419922 8.910000
15054.400391 30787.109375 13.080000
15055.049805 30787.740234 14.680000
15054.780273 30787.550781 14.560000
15055.309570 30787.769531 9.020000
15054.290039 30787.289063 12.880000
15054.929688 30787.919922 14.620000
15054.660156 30787.730469 14.530000
15054.370117 30787.640625 13.960000
15054.160156 30787.480469 12.790000
15055.580078 30788.570313 6.810000
15054.250000 30787.820313 13.880000
15055.400391 30788.789063 6.980000
15054.110352 30787.990234 13.960000
15055.240234 30789.019531 6.910000
15054.400391 30788.339844 13.100000
15054.040039 30788.210938 13.170000
15053.730469 30787.990234 13.570000
15054.549805 30788.710938 13.370000
15054.269531 30788.519531 13.130000
15053.910156 30788.390625 13.230000
15053.589844 30788.150391 13.750000
15054.419922 30788.900391 13.330000
15054.139648 30788.689453 13.230000
15053.780273 30788.570313 13.270000
15053.440430 30788.289063 14.340000
15054.290039 30789.070313 13.410000
15054.000000 30788.869141 13.290000
15053.650391 30788.750000 13.350000
15053.320313 30788.470703 14.300000
15054.160156 30789.250000 13.450000
15053.870117 30789.050781 13.350000
15053.509766 30788.910156 13.570000
15053.209961 30788.669922 14.000000
15054.129883 30789.609375 11.820000
15053.370117 30789.060547 13.830000
15053.089844 30788.859375 13.840000
15053.250000 30789.240234 13.860000
15052.959961 30789.029297 13.890000
15054.030273 30790.410156 8.540000
15053.480469 30789.560547 13.620000
15053.120117 30789.400391 13.960000
15052.839844 30789.199219 13.940000
15053.639648 30789.949219 13.620000
15053.349609 30789.730469 13.700000
15052.990234 30789.570313 14.020000
15052.709961 30789.369141 13.980000
15053.509766 30790.130859 13.680000
15053.209961 30789.890625 13.890000
15052.830078 30789.470703 16.230000
15052.860352 30789.740234 14.110000
15052.570313 30789.240234 16.559999
15052.580078 30789.480469 14.560000
15053.250000 30789.779297 17.240000
15053.379883 30790.310547 13.650000
15053.080078 30790.009766 14.260000
15052.709961 30789.580078 16.559999
15052.459961 30789.439453 16.219999
15052.459961 30789.650391 14.610000
15053.250000 30790.470703 13.760000
15052.900391 30789.800781 16.900000
15052.599609 30789.730469 16.670000
15052.349609 30789.560547 16.559999
15053.120117 30790.660156 13.670000
15052.790039 30789.949219 16.920000
15052.830078 30790.380859 14.140000
15052.490234 30789.859375 16.870001
15052.230469 30789.730469 16.490000
15052.910156 30790.169922 17.639999
15053.000000 30790.849609 13.650000
15052.679688 30790.080078 17.139999
15052.370117 30790.039063 16.730000
15052.360352 30790.429688 14.260000
15052.120117 30789.849609 16.730000
15052.799805 30790.310547 17.730000
15052.870117 30791.029297 13.620000
15052.570313 30790.189453 17.410000
15052.259766 30790.130859 17.110001
15052.009766 30790.000000 16.809999
15052.740234 30791.220703 13.560000
15052.459961 30790.339844 17.400000
15052.150391 30790.269531 17.209999
15051.910156 30790.109375 17.100000
15052.610352 30791.419922 13.470000
15052.339844 30790.599609 16.830000
15052.320313 30791.130859 13.890000
15052.040039 30790.500000 16.830000
15051.980469 30790.980469 14.100000
15051.780273 30790.339844 16.700001
15051.709961 30790.720703 14.400000
15052.480469 30791.500000 13.990000
15052.200195 30791.250000 14.250000
15051.929688 30790.619141 17.000000
15051.860352 30791.140625 14.200000
15051.669922 30790.480469 16.750000
15051.580078 30790.919922 14.280000
15052.349609 30791.810547 13.390000
15052.120117 30790.849609 17.170000
15052.070313 30791.419922 14.260000
15051.730469 30791.320313 14.180000
15051.530273 30790.750000 16.150000
15051.450195 30791.089844 14.330000
15052.219727 30792.009766 13.300000
15051.940430 30791.619141 14.160000
15051.599609 30791.500000 14.200000
15051.419922 30790.880859 16.330000
15051.320313 30791.279297 14.250000
15052.089844 30792.169922 13.410000
15051.799805 30791.939453 13.500000
15051.589844 30793.580078 5.720000
15051.469727 30791.679688 14.210000
15051.320313 30791.000000 16.549999
15051.160156 30791.589844 13.610000
15051.940430 30792.519531 12.680000
15051.700195 30791.890625 14.580000
15051.650391 30792.259766 12.870000
15051.309570 30792.000000 13.540000
15051.209961 30791.140625 16.680000
15051.049805 30791.689453 13.980000
15051.809570 30792.699219 12.730000
15051.540039 30792.320313 13.470000
15051.190430 30792.169922 13.600000
15050.900391 30791.929688 13.710000
15051.389648 30792.599609 13.050000
15051.030273 30792.429688 13.260000
15050.769531 30792.130859 13.640000
15051.250000 30792.789063 13.060000
15050.900391 30792.619141 13.270000
15050.629883 30792.330078 13.600000
15051.110352 30793.009766 12.950000
15050.759766 30792.810547 13.240000
15050.500000 30792.519531 13.560000
15050.980469 30793.169922 13.040000
15050.620117 30793.019531 13.140000
15050.349609 30792.750000 13.370000
15051.139648 30793.570313 13.100000
15050.839844 30793.369141 13.050000
15050.500000 30793.179688 13.280000
15050.200195 30792.970703 13.240000
15051.009766 30793.759766 13.140000
15050.709961 30793.539063 13.120000
15050.339844 30793.419922 13.100000
15050.059570 30793.179688 13.190000
15050.879883 30793.910156 13.290000
15050.570313 30793.750000 13.090000
15050.429688 30793.929688 13.110000
15064.620117 30772.960938 16.309999
15064.410156 30773.810547 17.010000
15064.940430 30773.250000 16.010000
15064.549805 30773.089844 16.080000
15064.290039 30773.990234 16.940001
15064.299805 30773.419922 16.219999
15064.240234 30774.099609 16.690001
15064.059570 30773.740234 16.389999
15064.250000 30774.160156 16.350000
15064.059570 30773.800781 16.059999
15061.519531 30776.099609 20.250000
15063.339844 30774.039063 16.629999
15063.910156 30772.769531 14.670000
15063.929688 30774.550781 16.610001
15063.740234 30774.189453 16.320000
15061.490234 30776.179688 20.020000
15061.360352 30775.839844 19.719999
15063.750000 30773.019531 14.660000
15063.830078 30774.720703 16.450001
15061.919922 30776.199219 19.590000
15063.509766 30774.500000 16.420000
15061.660156 30776.039063 19.389999
15061.330078 30775.919922 19.469999
15063.879883 30774.720703 16.010000
15064.230469 30773.779297 14.640000
15061.620117 30776.119141 19.160000
15061.320313 30775.970703 19.190001
15063.570313 30775.099609 16.270000
15064.240234 30774.429688 14.980000
15062.059570 30776.160156 18.740000
15064.049805 30774.050781 14.670000
15061.610352 30776.179688 18.879999
15061.330078 30776.000000 18.850000
15064.230469 30774.509766 14.640000
15061.740234 30776.539063 19.049999
15063.950195 30774.220703 14.500000
15061.509766 30776.330078 18.770000
15061.200195 30776.189453 18.820000
15062.919922 30775.880859 16.900000
15062.070313 30776.259766 18.100000
15061.509766 30776.380859 18.459999
15061.530273 30775.849609 17.780001
15062.099609 30776.759766 18.309999
15061.690430 30776.710938 18.559999
15061.419922 30776.529297 18.350000
15061.320313 30776.140625 17.910000
15062.549805 30776.369141 17.059999
15061.530273 30776.919922 18.600000
15062.299805 30776.119141 16.930000
15061.509766 30776.480469 17.809999
15061.379883 30776.109375 17.430000
15064.629883 30774.390625 12.240000
15062.290039 30776.189453 16.610001
15061.839844 30776.169922 16.719999
15061.290039 30776.250000 17.280001
15062.240234 30776.300781 16.379999
15064.459961 30774.019531 11.400000
15061.709961 30776.369141 16.680000
15061.349609 30776.240234 16.799999
15062.830078 30776.300781 15.420000
15062.589844 30776.009766 15.210000
15061.459961 30776.689453 16.910000
15061.200195 30776.449219 16.790001
15063.830078 30775.400391 12.730000
15061.660156 30777.009766 17.000000
15061.259766 30776.949219 17.020000
15060.879883 30776.859375 17.180000
15063.690430 30775.609375 12.680000
15062.650391 30776.070313 14.290000
15061.330078 30776.929688 16.500000
15061.139648 30776.619141 16.209999
15064.790039 30774.640625 9.710000
15061.559570 30777.230469 16.510000
15061.240234 30777.089844 16.350000
15061.040039 30776.779297 16.080000
15065.480469 30774.080078 7.680000
15062.280273 30776.580078 14.430000
15061.750000 30776.609375 14.710000
15060.709961 30777.199219 16.520000
15062.070313 30777.369141 15.330000
15061.750000 30777.169922 15.340000
15061.900391 30776.509766 13.910000
15060.679688 30777.279297 16.219999
15065.599609 30774.160156 6.370000
15061.629883 30777.349609 15.240000
15061.839844 30776.630859 13.660000
15060.580078 30777.429688 16.110001
15062.269531 30777.330078 14.080000
15062.059570 30776.990234 13.760000
15061.690430 30776.859375 13.650000
15061.400391 30776.589844 13.480000
15062.089844 30777.570313 14.120000
15062.480469 30776.660156 12.250000
15061.059570 30777.019531 13.980000
15062.669922 30777.109375 12.240000
15061.879883 30777.320313 13.410000
15061.530273 30777.150391 13.220000
15061.370117 30776.740234 12.700000
15061.809570 30777.449219 13.130000
15061.370117 30777.369141 13.180000
15061.620117 30776.539063 11.500000
15061.900391 30777.970703 13.390000
15062.209961 30777.699219 12.570000
15061.620117 30777.699219 13.220000
15061.190430 30777.619141 13.260000
15063.099609 30775.699219 7.790000
15059.679688 30778.660156 16.809999
15061.049805 30777.199219 12.630000
15061.700195 30778.230469 13.530000
15061.400391 30777.990234 13.420000
15062.950195 30775.939453 7.690000
15060.879883 30777.449219 12.720000
15061.910156 30778.130859 12.530000
15062.820313 30776.150391 7.540000
15060.070313 30778.359375 14.840000
15060.690430 30777.710938 12.850000
15061.719727 30778.369141 12.600000
15061.320313 30777.710938 11.500000
15059.950195 30778.539063 14.760000
15060.150391 30778.910156 14.640000
15059.219727 30779.349609 16.559999
15059.830078 30778.720703 14.670000
15060.059570 30779.070313 14.470000
15059.690430 30778.929688 14.660000
15059.650391 30779.029297 14.310000
15059.500000 30779.240234 14.330000
15059.830078 30778.900391 13.220000
15059.660156 30779.130859 13.290000
15059.540039 30779.320313 13.190000
15059.679688 30779.769531 13.340000
15060.019531 30778.919922 10.980000
15059.400391 30779.730469 11.530000
15059.769531 30780.009766 10.890000
15059.320313 30779.890625 11.290000
15059.160156 30780.109375 11.330000
15058.940430 30780.390625 11.600000
15058.799805 30780.599609 11.580000
15057.910156 30783.269531 14.810000
15057.610352 30783.089844 14.900000
15057.820313 30783.429688 14.660000
15058.190430 30783.220703 13.040000
15057.549805 30783.220703 14.590000
15057.959961 30782.960938 12.690000
15057.660156 30783.619141 14.780000
15057.500000 30783.359375 14.210000
15057.150391 30783.240234 14.160000
15056.809570 30783.089844 14.450000
15057.450195 30782.599609 11.030000
15057.700195 30782.410156 9.680000
15057.519531 30783.810547 14.850000
15057.299805 30783.580078 14.530000
15056.959961 30783.470703 14.470000
15056.709961 30783.250000 14.290000
15057.110352 30782.949219 12.100000
15057.360352 30784.000000 14.990000
15057.669922 30783.849609 13.570000
15057.219727 30783.740234 14.330000
15056.849609 30783.640625 14.380000
