# .PCD v.7 - Point Cloud Data file format
VERSION .7
FIELDS x y z
SIZE 4 4 4
TYPE F F F
COUNT 1 1 1
WIDTH 1293
HEIGHT 1
POINTS 1293
DATA ascii
51369.089844 841461.187500 23.030001
51369.101563 841461.250000 21.910000
51373.191406 841465.062500 22.129999
51373.128906 841464.750000 27.010000
51372.859375 841464.812500 19.660000
51372.828125 841464.687500 22.280001
51372.089844 841463.875000 23.070000
51372.058594 841463.750000 26.059999
51371.699219 841463.375000 25.940001
51371.730469 841463.500000 23.340000
51371.320313 841463.000000 25.280001
51371.300781 841462.937500 26.340000
51371.339844 841463.062500 23.430000
51370.921875 841462.437500 28.340000
51370.929688 841462.500000 27.190001
51370.558594 841462.187500 25.920000
51370.550781 841462.125000 26.520000
51370.191406 841461.750000 26.510000
51369.828125 841461.437500 26.420000
51369.480469 841461.250000 22.059999
51373.210938 841464.375000 22.250000
51372.859375 841464.000000 22.430000
51372.871094 841464.062500 21.820000
51372.449219 841463.562500 22.950001
51372.410156 841463.375000 26.350000
51372.058594 841463.187500 23.049999
51372.039063 841463.062500 24.940001
51372.031250 841463.000000 26.139999
51371.671875 841462.687500 24.990000
51371.699219 841462.812500 23.020000
51371.660156 841462.625000 26.580000
51371.269531 841462.187500 26.830000
51371.261719 841462.125000 27.860001
51370.878906 841461.812500 26.730000
51370.488281 841461.437500 26.320000
51370.480469 841461.375000 27.080000
51370.468750 841461.312500 27.959999
51373.101563 841463.187500 22.389999
51372.718750 841462.750000 22.360001
51372.679688 841462.625000 25.250000
51372.378906 841462.437500 21.850000
51372.339844 841462.250000 25.240000
51371.898438 841461.687500 28.270000
51371.601563 841461.562500 23.370001
51371.589844 841461.500000 25.070000
51371.550781 841461.312500 27.799999
51373.218750 841461.812500 25.870001
51373.269531 841462.000000 22.299999
51372.859375 841461.562500 22.540001
51372.539063 841461.375000 20.040001
51372.179688 841461.187500 15.570000
51373.070313 841461.687500 6.690000
51370.421875 841468.750000 20.410000
51370.921875 841468.812500 22.190001
51370.988281 841469.000000 18.549999
51371.421875 841469.000000 22.170000
51371.878906 841469.000000 25.709999
51370.398438 841468.125000 20.330000
51370.941406 841468.375000 18.780001
51370.871094 841468.187500 22.270000
51370.898438 841468.250000 20.600000
51371.378906 841468.437500 20.170000
51371.339844 841468.312500 22.500000
51371.300781 841468.250000 24.680000
51371.878906 841468.500000 22.930000
51371.839844 841468.375000 24.950001
51371.800781 841468.312500 27.020000
51372.378906 841468.687500 21.980000
51372.261719 841468.437500 27.559999
51372.878906 841468.750000 24.650000
51372.929688 841468.875000 22.230000
51372.808594 841468.562500 28.010000
51370.550781 841467.625000 20.190001
51370.601563 841467.750000 17.799999
51371.050781 841467.687500 23.780001
51371.121094 841467.812500 20.010000
51371.078125 841467.750000 22.040001
51371.980469 841467.812500 28.000000
51372.031250 841467.937500 25.549999
51372.019531 841467.875000 26.360001
51372.500000 841468.000000 27.840000
51372.570313 841468.125000 24.580000
51372.539063 841468.062500 26.209999
51373.148438 841468.375000 23.320000
51373.121094 841468.312500 24.770000
51372.468750 841467.687500 27.860001
51372.500000 841467.750000 26.620001
51373.000000 841467.875000 26.959999
51373.039063 841468.000000 24.920000
51372.121094 841469.562500 25.969999
51371.750000 841469.187500 25.860001
51371.410156 841468.875000 25.190001
51371.449219 841469.062500 22.139999
51371.039063 841468.625000 22.209999
51371.089844 841468.812500 18.610001
51370.710938 841468.312500 20.650000
51370.691406 841468.250000 22.190001
51370.308594 841467.937500 20.600000
51372.308594 841469.125000 25.600000
51371.878906 841468.562500 27.620001
51371.910156 841468.687500 25.520000
51371.921875 841468.750000 25.070000
51371.570313 841468.500000 22.570000
51371.511719 841468.250000 26.660000
51371.531250 841468.312500 25.070000
51371.230469 841468.250000 19.990000
51371.199219 841468.125000 22.379999
51370.800781 841467.687500 23.209999
51370.839844 841467.812500 20.629999
51370.859375 841467.937500 18.760000
51372.378906 841468.687500 27.820000
51372.058594 841468.500000 25.120001
51372.019531 841468.375000 27.680000
51372.031250 841468.375000 27.160000
51371.699219 841468.125000 24.809999
51371.671875 841468.062500 26.600000
51371.339844 841467.812500 24.430000
51371.371094 841467.875000 22.690001
51372.710938 841468.625000 28.010000
51372.789063 841469.000000 22.250000
51372.761719 841468.875000 24.700001
51372.371094 841468.312500 27.660000
51372.410156 841468.500000 24.730000
51372.011719 841468.000000 25.920000
51372.000000 841468.000000 26.620001
51372.000000 841468.000000 26.860001
51373.238281 841468.375000 23.490000
51373.218750 841468.250000 24.879999
51372.789063 841467.750000 26.900000
51372.769531 841467.687500 27.980000
51376.261719 841454.500000 25.790001
51376.289063 841454.562500 23.930000
51376.230469 841454.250000 23.900000
51376.199219 841454.187500 25.719999
51376.750000 841454.437500 23.820000
51377.179688 841454.437500 26.660000
51377.679688 841454.625000 26.639999
51375.789063 841453.312500 27.350000
51376.339844 841453.500000 27.030001
51376.839844 841453.750000 25.400000
51376.808594 841453.687500 26.950001
51377.328125 841453.812500 26.680000
51377.269531 841453.687500 30.100000
51377.851563 841454.000000 26.299999
51378.441406 841454.312500 24.129999
51378.390625 841454.187500 27.100000
51378.421875 841454.250000 25.370001
51378.468750 841454.375000 22.680000
51378.949219 841454.562500 22.540001
51378.890625 841454.375000 25.450001
51378.921875 841454.437500 24.139999
51375.699219 841452.500000 27.260000
51376.210938 841452.687500 26.840000
51376.210938 841452.687500 27.360001
51376.769531 841452.875000 26.920000
51376.710938 841452.687500 30.070000
51377.210938 841452.812500 31.110001
51377.191406 841452.750000 32.430000
51377.710938 841453.000000 31.719999
51377.781250 841453.125000 27.920000
51377.699219 841452.937500 32.419998
51378.238281 841453.250000 28.320000
51378.210938 841453.187500 30.370001
51378.281250 841453.375000 26.090000
51378.800781 841453.562500 26.030001
51379.300781 841453.812500 24.320000
51379.269531 841453.687500 26.120001
51376.160156 841452.250000 10.320000
51376.101563 841452.125000 13.910000
51376.511719 841451.875000 23.850000
51376.519531 841451.875000 22.750000
51376.910156 841451.812500 28.110001
51376.929688 841451.875000 26.469999
51376.878906 841451.750000 29.360001
51377.421875 841451.875000 30.030001
51377.890625 841452.062500 30.030001
51377.921875 841452.125000 28.540001
51378.441406 841452.312500 28.360001
51378.468750 841452.375000 26.700001
51378.488281 841452.437500 25.570000
51378.421875 841452.250000 29.260000
51378.949219 841452.500000 28.230000
51379.000000 841452.562500 25.480000
51379.011719 841452.625000 24.730000
51379.570313 841452.812500 24.780001
51373.550781 841451.000000 7.150000
51374.339844 841450.500000 25.030001
51376.089844 841451.562500 13.710000
51376.441406 841451.312500 22.280001
51376.921875 841451.312500 26.090000
51376.941406 841451.375000 24.950001
51376.960938 841451.437500 23.709999
51377.390625 841451.312500 29.209999
51377.441406 841451.500000 26.080000
51377.449219 841451.500000 25.299999
51377.988281 841451.687500 25.990000
51378.031250 841451.750000 23.740000
51378.441406 841451.750000 27.459999
51378.468750 841451.812500 25.650000
51378.511719 841451.937500 23.639999
51378.980469 841452.000000 25.629999
51379.460938 841452.187500 25.639999
51373.609375 841449.875000 22.660000
51374.140625 841449.937500 24.990000
51374.160156 841450.000000 22.870001
51374.621094 841450.125000 24.629999
51375.121094 841450.250000 24.719999
51377.171875 841451.000000 22.760000
51377.128906 841450.937500 24.860001
51377.679688 841451.187500 22.910000
51377.628906 841451.062500 25.959999
51378.191406 841451.312500 23.549999
51378.140625 841451.187500 26.030001
51378.671875 841451.500000 23.559999
51378.628906 841451.375000 25.629999
51379.171875 841451.562500 25.750000
51379.679688 841451.687500 25.860001
51373.621094 841449.500000 22.549999
51374.148438 841449.562500 24.559999
51374.179688 841449.687500 22.610001
51374.621094 841449.750000 24.340000
51375.128906 841449.875000 24.680000
51377.261719 841450.687500 22.750000
51377.710938 841450.687500 26.180000
51377.769531 841450.812500 22.830000
51378.308594 841451.000000 23.389999
51379.261719 841451.187500 25.750000
51379.730469 841451.312500 25.920000
51373.421875 841448.750000 20.709999
51373.941406 841448.812500 23.000000
51373.949219 841448.875000 22.370001
51373.898438 841448.687500 26.049999
51373.871094 841448.562500 28.469999
51374.421875 841448.875000 26.110001
51374.468750 841449.000000 22.299999
51374.429688 841448.937500 24.850000
51374.449219 841448.937500 24.010000
51374.988281 841449.125000 24.530001
51375.460938 841449.250000 24.780001
51376.449219 841449.562500 24.809999
51376.960938 841449.750000 24.750000
51378.011719 841450.125000 23.530001
51378.519531 841450.312500 23.590000
51375.921875 841448.562500 23.450001
51375.910156 841448.500000 24.260000
51375.890625 841448.500000 25.240000
51376.390625 841448.750000 23.410000
51376.328125 841448.500000 27.660000
51376.929688 841448.875000 24.610001
51376.898438 841448.750000 26.320000
51376.949219 841448.937500 23.139999
51377.441406 841449.000000 24.730000
51377.980469 841449.250000 23.360001
51378.488281 841449.437500 23.270000
51379.039063 841449.562500 23.400000
51379.558594 841449.750000 23.510000
51378.031250 841448.375000 25.219999
51378.050781 841448.375000 24.139999
51378.500000 841448.375000 28.690001
51378.570313 841448.562500 23.959999
51376.171875 841454.562500 25.889999
51376.441406 841454.312500 25.770000
51376.468750 841454.437500 23.870001
51376.050781 841453.937500 25.620001
51376.070313 841454.062500 24.070000
51377.031250 841454.562500 26.719999
51376.671875 841454.250000 25.629999
51376.691406 841454.375000 23.770000
51376.300781 841453.875000 25.510000
51376.320313 841454.000000 23.930000
51375.910156 841453.375000 27.389999
51375.558594 841453.062500 27.200001
51377.941406 841454.500000 26.600000
51377.558594 841454.125000 26.540001
51377.148438 841453.562500 30.139999
51377.191406 841453.750000 26.750000
51376.789063 841453.437500 25.549999
51376.781250 841453.312500 27.020000
51376.398438 841452.937500 26.940001
51376.031250 841452.562500 27.160000
51373.820313 841450.375000 25.299999
51379.039063 841454.437500 27.930000
51378.699219 841454.187500 25.520000
51378.710938 841454.250000 24.209999
51378.730469 841454.375000 22.650000
51378.320313 841453.687500 27.959999
51378.339844 841453.812500 26.190001
51377.871094 841453.062500 31.820000
51377.921875 841453.250000 28.020000
51377.890625 841453.125000 30.299999
51377.519531 841452.687500 32.419998
51377.128906 841452.375000 30.510000
51377.121094 841452.250000 31.860001
51376.820313 841452.187500 27.680000
51376.828125 841452.250000 26.520000
51376.851563 841452.312500 24.900000
51376.500000 841452.062500 22.420000
51376.488281 841452.000000 23.120001
51376.210938 841452.125000 13.940000
51376.250000 841452.375000 10.340000
51374.558594 841449.937500 24.740000
51374.179688 841449.687500 22.580000
51374.160156 841449.562500 24.639999
51373.828125 841449.312500 22.650000
51373.468750 841449.000000 20.760000
51373.421875 841448.750000 25.870001
51373.449219 841448.937500 22.610001
51379.511719 841453.750000 26.230000
51379.531250 841453.875000 24.150000
51379.128906 841453.437500 24.540001
51379.109375 841453.375000 26.049999
51378.738281 841453.000000 24.730000
51378.718750 841452.937500 26.110001
51378.308594 841452.312500 30.360001
51378.328125 841452.437500 29.209999
51377.929688 841452.000000 28.650000
51377.550781 841451.625000 29.139999
51377.199219 841451.437500 24.809999
51377.191406 841451.375000 25.990000
51376.878906 841451.250000 22.129999
51376.859375 841451.125000 23.760000
51375.371094 841449.562500 24.600000
51375.000000 841449.187500 24.500000
51374.609375 841448.812500 24.100000
51374.601563 841448.687500 26.100000
51374.238281 841448.312500 26.049999
51379.710938 841453.312500 24.850000
51379.351563 841452.937500 24.650000
51378.941406 841452.375000 28.400000
51378.960938 841452.437500 26.670000
51378.968750 841452.500000 25.500000
51378.578125 841452.000000 28.719999
51378.621094 841452.187500 25.590000
51378.199219 841451.625000 27.440001
51378.218750 841451.750000 25.730000
51378.238281 841451.875000 23.680000
51377.890625 841451.500000 23.760000
51377.871094 841451.375000 26.000000
51377.468750 841450.937500 25.950001
51377.500000 841451.125000 22.860001
51377.148438 841450.750000 22.809999
51375.210938 841448.625000 26.030001
51375.218750 841448.687500 24.650000
51379.011719 841452.125000 25.610001
51378.628906 841451.812500 23.719999
51378.601563 841451.687500 25.660000
51378.250000 841451.312500 25.950001
51378.281250 841451.437500 23.559999
51377.839844 841450.875000 26.049999
51377.871094 841451.000000 23.430000
51377.460938 841450.500000 26.150000
51377.500000 841450.687500 22.680000
51376.011719 841449.125000 23.480000
51375.648438 841448.750000 22.639999
51375.628906 841448.625000 24.840000
51379.320313 841451.875000 25.580000
51378.968750 841451.562500 25.770000
51378.621094 841451.250000 23.490000
51378.238281 841450.875000 23.420000
51377.871094 841450.562500 22.799999
51377.101563 841449.625000 24.809999
51376.750000 841449.312500 24.650000
51376.359375 841448.937500 23.379999
51376.308594 841448.750000 27.670000
51375.960938 841448.437500 25.270000
51375.968750 841448.500000 24.240000
51375.980469 841448.562500 23.459999
51375.941406 841448.312500 27.889999
51379.679688 841451.062500 26.090000
51378.558594 841450.000000 23.410000
51378.171875 841449.625000 23.360001
51377.789063 841449.250000 23.370001
51377.769531 841449.187500 24.820000
51377.390625 841448.750000 24.740000
51377.410156 841448.875000 23.260000
51378.941406 841449.062500 23.450001
51378.550781 841448.625000 23.990000
51378.500000 841448.375000 28.740000
51378.558594 841448.687500 23.170000
51376.828125 841460.437500 21.570000
51377.339844 841460.500000 23.480000
51377.371094 841460.625000 21.780001
51377.820313 841460.562500 25.730000
51377.910156 841460.812500 21.410000
51377.871094 841460.687500 23.270000
51378.328125 841460.750000 25.459999
51378.371094 841460.875000 23.290001
51378.820313 841460.937500 24.670000
51378.859375 841461.000000 22.940001
51375.890625 841459.125000 22.820000
51376.359375 841459.250000 22.889999
51376.421875 841459.437500 19.809999
51376.910156 841459.437500 23.070000
51377.308594 841459.375000 26.940001
51377.390625 841459.625000 22.850000
51377.410156 841459.625000 21.750000
51377.429688 841459.687500 20.840000
51377.449219 841459.750000 19.730000
51377.898438 841459.687500 24.840000
51377.921875 841459.750000 23.760000
51378.328125 841459.750000 27.040001
51378.371094 841459.812500 25.290001
51378.878906 841460.000000 25.469999
51378.851563 841459.937500 26.790001
51379.398438 841460.187500 25.020000
51379.371094 841460.062500 26.639999
51376.171875 841458.562500 22.900000
51376.269531 841458.812500 17.700001
51376.640625 841458.750000 23.049999
51377.121094 841458.750000 26.860001
51377.179688 841458.875000 23.440001
51377.628906 841458.875000 26.940001
51378.128906 841458.937500 29.379999
51378.160156 841459.000000 28.150000
51378.671875 841459.250000 26.240000
51378.609375 841459.125000 29.010000
51379.171875 841459.375000 27.000000
51379.628906 841459.500000 27.360001
51379.679688 841459.625000 25.000000
51376.531250 841458.437500 18.590000
51376.550781 841458.500000 17.650000
51377.058594 841458.625000 18.760000
51376.988281 841458.437500 22.490000
51376.968750 841458.375000 23.260000
51376.960938 841458.375000 24.080000
51377.468750 841458.562500 23.270000
51377.410156 841458.437500 26.219999
51377.378906 841458.312500 27.680000
51377.890625 841458.437500 28.730000
51378.378906 841458.562500 29.430000
51378.890625 841458.750000 28.770000
51378.898438 841458.812500 28.240000
51379.480469 841459.125000 25.070000
51379.460938 841459.062500 26.139999
51376.671875 841458.000000 18.559999
51377.039063 841457.937500 24.049999
51376.988281 841457.812500 26.350000
51377.070313 841458.000000 22.480000
51377.101563 841458.062500 20.559999
51377.140625 841458.187500 18.680000
51377.519531 841457.937500 27.219999
51377.550781 841458.000000 26.139999
51378.000000 841458.000000 29.080000
51378.019531 841458.062500 27.940001
51378.039063 841458.125000 27.100000
51378.050781 841458.125000 26.270000
51378.570313 841458.250000 28.020000
51378.558594 841458.187500 28.940001
51379.031250 841458.375000 28.600000
51379.109375 841458.562500 24.850000
51379.089844 841458.500000 26.120001
51379.609375 841458.687500 25.549999
51379.589844 841458.625000 26.440001
51376.878906 841457.125000 24.719999
51376.910156 841457.187500 22.910000
51377.390625 841457.250000 24.480000
51377.429688 841457.375000 22.850000
51377.949219 841457.562500 22.389999
51377.910156 841457.437500 24.469999
51378.398438 841457.562500 25.709999
51378.421875 841457.625000 24.750000
51378.878906 841457.625000 27.350000
51378.898438 841457.687500 26.110001
51379.410156 841457.875000 26.209999
51377.230469 841456.250000 22.959999
51377.738281 841456.437500 22.850000
51378.269531 841456.687500 21.680000
51378.218750 841456.562500 24.299999
51378.699219 841456.625000 26.219999
51378.730469 841456.687500 24.370001
51379.300781 841456.875000 24.280001
51378.660156 841455.937500 24.670000
51379.179688 841456.125000 24.150000
51376.769531 841454.750000 23.990000
51377.269531 841454.750000 26.820000
51377.781250 841454.937500 26.660000
51378.281250 841455.062500 27.340000
51378.839844 841455.375000 25.209999
51378.781250 841455.250000 27.920000
51378.230469 841455.000000 22.260000
51378.148438 841454.750000 26.809999
51378.691406 841454.937500 27.320000
51379.171875 841455.062500 27.760000
51377.300781 841461.000000 23.490000
51376.199219 841459.875000 22.809999
51375.828125 841459.500000 22.850000
51377.808594 841460.875000 23.250000
51377.460938 841460.500000 23.410000
51377.480469 841460.625000 21.570000
51377.078125 841460.250000 21.480000
51376.691406 841459.750000 22.750000
51376.730469 841459.937500 19.690001
51376.300781 841459.375000 22.900000
51375.929688 841459.000000 22.940001
51378.199219 841460.937500 21.969999
51378.148438 841460.750000 25.760000
51378.179688 841460.875000 23.389999
51377.800781 841460.437500 23.540001
51377.421875 841460.062500 23.570000
51377.429688 841460.125000 22.920000
51377.449219 841460.187500 21.360001
51377.089844 841459.750000 22.780001
51377.101563 841459.812500 21.650000
51376.710938 841459.375000 23.059999
51376.359375 841459.000000 22.980000
51375.949219 841458.562500 22.950001
51378.941406 841461.000000 24.650000
51378.960938 841461.062500 22.940001
51378.558594 841460.562500 25.340000
51378.570313 841460.625000 24.559999
51378.601563 841460.687500 22.920000
51378.171875 841460.125000 25.379999
51378.191406 841460.250000 23.680000
51377.789063 841459.687500 26.920000
51377.808594 841459.812500 24.920000
51377.828125 841459.875000 23.719999
51377.429688 841459.312500 26.860001
51377.480469 841459.562500 22.809999
51377.078125 841459.125000 23.590000
51377.101563 841459.187500 22.459999
51377.039063 841458.937500 26.650000
51376.699219 841458.750000 22.980000
51376.398438 841458.687500 17.610001
51379.621094 841460.500000 24.840000
51379.640625 841460.625000 22.950001
51379.261719 841460.250000 22.990000
51379.238281 841460.125000 24.889999
51379.210938 841460.000000 26.650000
51378.800781 841459.625000 26.790001
51378.390625 841459.062500 28.910000
51378.398438 841459.125000 28.320000
51378.019531 841458.687500 29.000000
51378.031250 841458.750000 28.200001
51378.050781 841458.812500 26.820000
51377.679688 841458.375000 28.620001
51377.691406 841458.437500 27.469999
51377.328125 841458.125000 26.309999
51377.109375 841458.312500 16.950001
51377.089844 841458.187500 18.660000
51377.058594 841458.062500 20.480000
51377.019531 841457.875000 24.070000
51377.039063 841458.000000 22.469999
51376.679688 841457.750000 18.570000
51379.460938 841458.937500 26.190001
51379.058594 841458.500000 26.160000
51379.078125 841458.562500 24.910000
51379.019531 841458.375000 28.580000
51378.710938 841458.187500 25.920000
51378.691406 841458.062500 27.420000
51378.679688 841458.000000 28.350000
51378.351563 841457.812500 25.360001
51377.988281 841457.500000 24.260000
51378.011719 841457.625000 22.440001
51377.578125 841457.062500 24.450001
51377.601563 841457.187500 22.940001
51377.250000 841456.812500 22.879999
51379.519531 841458.000000 26.129999
51379.531250 841458.000000 25.330000
51379.109375 841457.562500 26.120001
51378.769531 841457.250000 25.820000
51378.789063 841457.312500 24.160000
51378.390625 841456.812500 25.840000
51378.410156 841456.937500 24.480000
51378.460938 841457.062500 21.350000
51378.070313 841456.562500 24.290001
51379.468750 841457.437500 26.389999
51379.500000 841457.562500 24.549999
51379.531250 841457.625000 22.690001
51379.078125 841457.000000 26.440001
51379.109375 841457.125000 24.219999
51378.730469 841456.687500 26.190001
51378.750000 841456.750000 24.360001
51378.390625 841456.375000 24.280001
51379.671875 841457.375000 24.459999
51379.699219 841457.500000 22.940001
51379.289063 841457.000000 24.260000
51378.898438 841456.625000 24.440001
51378.539063 841456.250000 24.389999
51379.468750 841456.187500 24.600000
51378.738281 841455.437500 25.190001
51378.710938 841455.250000 27.719999
51378.300781 841454.875000 27.350000
51378.308594 841454.937500 26.680000
51377.968750 841454.687500 23.520000
51379.378906 841454.750000 28.200001
51379.109375 841454.750000 22.400000
51373.871094 841467.437500 28.580000
51373.750000 841466.500000 27.889999
51373.890625 841466.812500 21.120001
51373.820313 841466.687500 24.160000
51374.410156 841467.000000 21.180000
51374.390625 841467.000000 21.889999
51373.429688 841465.750000 20.920000
51373.949219 841465.875000 20.969999
51374.500000 841466.062500 21.219999
51375.019531 841466.250000 21.230000
51373.761719 841465.187500 20.910000
51374.238281 841465.375000 20.870001
51373.468750 841464.687500 22.170000
51373.910156 841463.562500 22.680000
51379.019531 841465.250000 22.450001
51379.449219 841465.187500 26.410000
51379.539063 841465.375000 22.490000
51373.601563 841462.312500 26.090000
51373.679688 841462.500000 22.020000
51374.140625 841462.625000 22.820000
51378.738281 841464.062500 23.780001
51379.171875 841464.062500 27.450001
51379.230469 841464.187500 24.930000
51379.308594 841464.375000 21.500000
51379.261719 841464.250000 23.809999
51379.730469 841464.250000 27.150000
51373.539063 841461.750000 22.030001
51374.058594 841461.937500 22.090000
51379.250000 841463.750000 19.930000
51379.199219 841463.625000 22.049999
51379.558594 841463.500000 28.180000
51379.628906 841463.625000 25.209999
51379.578125 841463.500000 27.520000
51378.960938 841463.062500 19.600000
51379.429688 841463.125000 21.430000
51379.339844 841462.937500 25.440001
51379.468750 841463.250000 19.670000
51378.839844 841462.750000 19.549999
51379.328125 841462.750000 22.330000
51379.261719 841462.625000 25.660000
51377.468750 841461.375000 23.660000
51379.550781 841462.125000 22.410000
51379.359375 841461.187500 23.090000
51379.378906 841461.250000 22.219999
51373.789063 841467.500000 28.450001
51373.429688 841467.187500 26.940001
51374.281250 841467.125000 21.760000
51373.871094 841466.625000 24.000000
51373.910156 841466.750000 21.150000
51373.808594 841466.375000 27.950001
51373.460938 841466.187500 24.240000
51374.371094 841466.687500 21.040001
51373.878906 841465.875000 28.400000
51373.609375 841465.937500 20.900000
51374.738281 841466.687500 21.150000
51374.378906 841466.312500 21.110001
51373.988281 841465.937500 20.990000
51373.601563 841465.500000 20.950001
51373.578125 841465.500000 21.990000
51375.109375 841466.437500 21.240000
51374.738281 841466.000000 21.230000
51374.359375 841465.625000 20.820000
51373.980469 841465.250000 20.910000
51373.578125 841464.750000 22.129999
51373.808594 841463.875000 22.670000
51373.441406 841463.500000 22.240000
51374.011719 841462.750000 22.719999
51373.648438 841462.437500 21.980000
51373.589844 841462.187500 26.110001
51373.980469 841461.937500 22.070000
51373.609375 841461.562500 22.209999
51374.300781 841461.750000 22.170000
51379.511719 841465.500000 26.680000
51379.609375 841465.875000 20.540001
51379.578125 841465.750000 22.420000
51379.199219 841465.375000 22.459999
51378.800781 841465.000000 22.370001
51379.460938 841464.375000 24.350000
51379.421875 841464.250000 27.309999
51379.101563 841464.000000 24.820000
51379.179688 841464.312500 19.360001
51379.148438 841464.187500 21.480000
51379.109375 841464.062500 23.629999
51379.488281 841463.000000 28.150000
51379.531250 841463.187500 25.600000
51379.250000 841463.062500 21.330000
51379.179688 841462.812500 25.540001
51379.269531 841463.187500 19.580000
51378.871094 841462.750000 19.520000
51377.671875 841461.312500 23.620001
51379.660156 841462.750000 25.480000
51379.710938 841462.875000 22.549999
51379.328125 841462.500000 22.379999
51379.281250 841462.312500 25.660000
51378.210938 841461.375000 21.940001
51379.730469 841462.500000 22.389999
51379.351563 841462.125000 22.510000
51378.578125 841461.250000 23.400000
51379.351563 841461.500000 23.190001
51379.359375 841461.500000 22.080000
51374.031250 841469.937500 21.010000
51374.449219 841469.937500 24.430000
51374.519531 841470.062500 21.180000
51374.949219 841470.062500 24.469999
51373.851563 841469.000000 25.400000
51373.578125 841468.437500 25.340000
51373.621094 841468.500000 23.700001
51374.089844 841468.562500 25.620001
51373.578125 841468.250000 23.580000
51374.050781 841468.375000 23.959999
51374.601563 841468.500000 24.270000
51374.449219 841467.812500 24.170000
51374.761719 841469.875000 24.510000
51373.601563 841468.625000 25.570000
51374.609375 841468.500000 24.299999
51374.218750 841468.125000 24.070000
51380.371094 841454.250000 22.200001
51380.820313 841454.187500 27.070000
51380.871094 841454.312500 24.600000
51380.921875 841454.375000 22.360001
51381.300781 841454.312500 26.959999
51381.351563 841454.437500 24.700001
51381.820313 841454.500000 26.700001
51382.308594 841454.625000 27.379999
51382.281250 841454.562500 28.910000
51381.101563 841453.312500 24.930000
51381.718750 841453.625000 21.490000
51381.648438 841453.500000 24.900000
51382.050781 841453.437500 28.410000
51382.519531 841453.500000 30.719999
51382.539063 841453.562500 29.910000
51383.011719 841453.750000 29.709999
51383.519531 841453.875000 29.889999
51383.609375 841454.062500 25.629999
51383.558594 841454.000000 27.730000
51384.078125 841454.187500 27.420000
51384.058594 841454.125000 28.260000
51384.171875 841454.375000 23.670000
51384.128906 841454.250000 25.450001
51384.640625 841454.437500 25.490000
51384.699219 841454.500000 23.270000
51384.718750 841454.562500 22.200001
51381.289063 841453.375000 10.730000
51381.519531 841452.875000 25.030001
51382.058594 841453.062500 23.639999
51382.019531 841453.000000 25.400000
51382.078125 841453.125000 22.700001
51382.429688 841453.000000 28.879999
51382.410156 841452.937500 29.709999
51382.968750 841453.187500 29.160000
51383.628906 841453.625000 22.459999
51383.558594 841453.500000 25.309999
51383.480469 841453.312500 29.150000
51384.089844 841453.687500 24.559999
51384.101563 841453.750000 23.969999
51384.011719 841453.500000 28.410000
51384.519531 841453.687500 28.650000
51384.601563 841453.875000 24.920000
51385.140625 841454.000000 25.629999
51381.570313 841452.937500 10.370000
51381.828125 841452.562500 22.719999
51382.210938 841452.375000 29.750000
51382.398438 841452.812500 20.410000
51382.351563 841452.687500 22.740000
51382.308594 841452.625000 24.520000
51382.671875 841452.500000 30.370001
51382.679688 841452.500000 29.790001
51382.718750 841452.625000 27.860001
51383.281250 841452.875000 25.540001
51383.820313 841453.187500 22.420000
51383.750000 841453.062500 25.500000
51384.320313 841453.250000 25.020000
51384.339844 841453.312500 24.129999
51384.390625 841453.375000 21.980000
51384.789063 841453.375000 25.100000
51381.851563 841452.125000 22.799999
51382.410156 841452.437500 20.260000
51382.359375 841452.312500 22.760000
51382.718750 841452.250000 28.020000
51382.789063 841452.375000 24.600000
51383.460938 841452.812500 19.469999
51383.390625 841452.625000 22.719999
51383.320313 841452.500000 25.730000
51383.269531 841452.375000 28.080000
51383.351563 841452.562500 24.540001
51383.839844 841452.687500 25.709999
51383.910156 841452.812500 22.450001
51384.441406 841453.062500 21.629999
51384.359375 841452.875000 25.200001
51384.531250 841453.250000 17.500000
51384.898438 841453.062500 24.180000
51384.878906 841453.000000 25.150000
51383.679688 841452.000000 22.740000
51384.218750 841452.250000 21.730000
51384.691406 841452.375000 21.780001
51380.859375 841454.500000 24.580000
51380.890625 841454.625000 22.230000
51380.511719 841454.250000 22.180000
51380.468750 841454.062500 24.799999
51381.281250 841454.500000 24.629999
51381.250000 841454.312500 26.969999
51380.839844 841453.937500 27.120001
51380.871094 841454.062500 24.650000
51380.910156 841454.187500 22.280001
51380.558594 841453.875000 22.240000
51381.980469 841454.625000 25.700001
51381.968750 841454.562500 26.840000
51381.558594 841454.187500 26.830000
51381.601563 841454.312500 24.500000
51381.628906 841454.437500 22.379999
51381.210938 841453.750000 27.110001
51381.238281 841453.937500 24.820000
51381.281250 841454.062500 22.320000
51383.320313 841454.625000 29.770000
51382.949219 841454.250000 30.680000
51382.589844 841453.875000 30.480000
51382.261719 841453.625000 28.389999
51382.281250 841453.687500 27.570000
51381.949219 841453.437500 25.190001
51381.968750 841453.500000 23.709999
51381.898438 841453.250000 28.309999
51381.558594 841453.062500 25.010000
51381.570313 841453.125000 23.620001
51381.191406 841452.687500 25.150000
51384.531250 841454.625000 27.290001
51384.160156 841454.375000 25.520000
51384.128906 841454.250000 27.450001
51384.109375 841454.187500 28.290001
51383.750000 841453.750000 29.730000
51383.808594 841454.000000 25.400000
51383.769531 841453.812500 28.180000
51383.378906 841453.375000 28.959999
51383.441406 841453.625000 25.320000
51383.421875 841453.562500 26.230000
51383.410156 841453.500000 26.980000
51383.031250 841453.125000 27.270000
51383.011719 841453.000000 29.190001
51383.058594 841453.250000 25.520000
51382.589844 841452.562500 29.980000
51382.378906 841452.750000 20.350000
51382.351563 841452.625000 22.730000
51382.320313 841452.500000 24.660000
51382.269531 841452.312500 28.040001
51381.941406 841452.187500 22.790001
51384.910156 841454.062500 25.590000
51384.960938 841454.250000 22.200001
51384.531250 841453.687500 25.049999
51384.468750 841453.437500 28.670000
51384.179688 841453.437500 22.360001
51384.148438 841453.312500 24.090000
51384.140625 841453.250000 25.000000
51383.808594 841453.062500 22.410000
51383.769531 841452.875000 25.559999
51383.488281 841452.875000 19.480000
51383.398438 841452.500000 25.700001
51383.011719 841452.000000 28.340000
51383.070313 841452.187500 24.600000
51382.628906 841451.562500 28.570000
51384.968750 841453.625000 24.100000
51384.949219 841453.562500 25.059999
51384.578125 841453.187500 25.090000
51384.589844 841453.250000 24.150000
51384.230469 841452.937500 22.670000
51384.250000 841453.000000 21.660000
51384.308594 841453.250000 17.520000
51383.808594 841452.375000 25.879999
51383.859375 841452.562500 22.610001
51383.019531 841451.437500 28.860001
51385.109375 841453.312500 25.150000
51384.769531 841453.125000 21.629999
51384.718750 841452.875000 25.059999
51384.371094 841452.687500 21.799999
51384.429688 841452.937500 17.430000
51383.988281 841452.312500 21.790001
51383.980469 841452.250000 22.719999
51384.921875 841452.437500 21.780001
51386.050781 841452.250000 23.590000
51379.949219 841460.375000 24.920000
51379.988281 841460.437500 23.080000
51382.039063 841461.000000 25.110001
51382.089844 841461.125000 22.910000
51382.460938 841461.062500 27.540001
51380.238281 841459.875000 23.080000
51380.199219 841459.812500 24.809999
51380.750000 841460.062500 23.190001
51381.730469 841460.312500 24.900000
51382.250000 841460.500000 25.000000
51382.679688 841460.500000 27.110001
51382.640625 841460.437500 28.799999
51383.289063 841460.875000 24.370001
51383.238281 841460.750000 26.440001
51383.160156 841460.625000 29.440001
51383.691406 841460.812500 28.950001
51383.730469 841460.875000 27.020000
51383.769531 841460.937500 25.510000
51384.199219 841460.937500 29.180000
51380.019531 841459.312500 24.940001
51380.058594 841459.375000 23.150000
51380.519531 841459.500000 24.969999
51380.558594 841459.562500 23.240000
51381.089844 841459.750000 23.299999
51381.589844 841459.812500 25.059999
51382.078125 841459.937500 26.059999
51382.109375 841460.000000 24.990000
51382.128906 841460.062500 23.780001
51382.171875 841460.125000 22.230000
51382.531250 841460.000000 28.440001
51382.570313 841460.062500 26.719999
51383.000000 841460.125000 29.020000
51383.031250 841460.187500 27.590000
51383.500000 841460.250000 29.200001
51383.519531 841460.312500 28.510000
51383.988281 841460.437500 29.090000
51384.078125 841460.625000 25.420000
51384.621094 841460.812500 25.610001
51384.691406 841460.937500 22.629999
51385.101563 841460.937500 25.860001
51380.078125 841458.812500 25.920000
51380.128906 841458.937500 23.420000
51380.601563 841459.000000 25.660000
51381.398438 841459.812500 12.540000
51381.859375 841459.875000 15.220000
51381.718750 841459.562500 21.090000
51381.628906 841459.375000 25.090000
51381.820313 841459.750000 16.820000
51382.128906 841459.500000 26.040001
51382.148438 841459.562500 25.049999
51382.191406 841459.625000 23.209999
51382.550781 841459.500000 29.860001
51383.019531 841459.625000 29.860001
51383.609375 841459.875000 28.330000
51383.558594 841459.750000 30.209999
51384.199219 841460.187500 25.500000
51384.121094 841460.062500 28.490000
51384.781250 841460.500000 22.870001
51384.710938 841460.375000 25.639999
51385.289063 841460.687500 22.680000
51385.210938 841460.500000 25.920000
51385.761719 841460.687500 26.200001
51379.929688 841458.125000 24.280001
51379.949219 841458.187500 23.219999
51380.468750 841458.250000 24.510000
51380.980469 841458.437500 24.750000
51381.449219 841458.500000 26.879999
51381.949219 841458.625000 27.480000
51381.980469 841458.687500 26.389999
51382.511719 841458.812500 26.990000
51383.019531 841459.000000 27.110001
51383.011719 841458.937500 27.940001
51382.980469 841458.875000 29.129999
51383.460938 841459.000000 30.290001
51383.968750 841459.250000 28.790001
51383.949219 841459.187500 29.670000
51384.000000 841459.312500 27.680000
51384.031250 841459.375000 26.370001
51384.601563 841459.625000 24.010000
51384.511719 841459.437500 27.750000
51385.078125 841459.812500 23.980000
51385.660156 841460.000000 22.990000
51379.800781 841457.062500 24.549999
51379.828125 841457.125000 23.180000
51380.308594 841457.187500 24.610001
51380.800781 841457.375000 23.809999
51380.781250 841457.312500 24.950001
51381.320313 841457.562500 23.770000
51382.031250 841458.250000 13.270000
51382.238281 841457.687500 28.309999
51382.769531 841457.937500 25.740000
51382.820313 841458.062500 23.680000
51383.410156 841458.312500 22.240000
51383.320313 841458.125000 26.270000
51383.351563 841458.187500 24.820000
51383.378906 841458.250000 23.750000
51383.449219 841458.375000 20.600000
51383.789063 841458.250000 26.190001
51383.761719 841458.187500 27.629999
51384.351563 841458.562500 24.020000
51384.261719 841458.375000 27.770000
51384.871094 841458.687500 24.100000
51380.660156 841456.500000 25.559999
51383.308594 841457.437500 24.920000
51383.800781 841457.500000 26.760000
51383.898438 841457.750000 22.430000
51384.289063 841457.687500 27.030001
51384.839844 841457.937500 24.059999
51384.390625 841457.062500 27.200001
51384.500000 841457.312500 22.530001
51384.980469 841457.375000 24.110001
51381.988281 841456.437500 17.070000
51382.468750 841456.562500 16.959999
51382.910156 841456.500000 22.059999
51383.421875 841456.687500 22.400000
51383.968750 841456.812500 22.480000
51384.449219 841457.000000 22.410000
51384.960938 841457.187500 22.320000
51380.531250 841455.000000 24.190001
51381.011719 841455.125000 24.209999
51380.968750 841455.062500 26.139999
51381.488281 841455.250000 25.750000
51381.531250 841455.312500 23.889999
51381.558594 841455.375000 22.379999
51382.089844 841455.625000 20.000000
51382.109375 841455.687500 18.709999
51381.968750 841455.375000 25.700001
51382.011719 841455.500000 23.850000
51382.589844 841455.812500 20.219999
51382.488281 841455.562500 25.080000
51382.441406 841455.500000 27.280001
51383.058594 841455.875000 22.360001
51382.988281 841455.750000 25.440001
51383.019531 841455.750000 24.200001
51383.449219 841455.750000 28.110001
51383.531250 841455.937500 24.190001
51383.500000 841455.875000 25.820000
51384.050781 841456.125000 24.309999
51384.089844 841456.187500 22.510000
51384.011719 841456.000000 26.170000
51384.511719 841456.187500 26.540001
51384.980469 841456.312500 26.570000
51382.808594 841454.687500 29.950001
51383.289063 841454.875000 29.719999
51383.339844 841455.000000 27.270000
51383.890625 841455.187500 27.070000
51384.441406 841455.375000 26.299999
51380.031250 841461.062500 22.430000
51380.261719 841459.875000 23.090000
51380.238281 841459.812500 24.820000
51379.828125 841459.375000 24.990000
51379.859375 841459.500000 23.139999
51379.808594 841459.250000 26.540001
51382.539063 841461.000000 27.540001
51382.171875 841460.750000 25.080000
51381.101563 841459.750000 23.250000
51380.691406 841459.312500 23.230000
51380.660156 841459.187500 25.410000
51380.339844 841458.937500 23.690001
51380.300781 841458.812500 25.889999
51379.910156 841458.437500 25.170000
51379.898438 841458.375000 26.260000
51379.921875 841458.500000 24.540001
51382.839844 841460.875000 27.200001
51382.890625 841461.062500 23.910000
51382.480469 841460.562500 25.120001
51382.441406 841460.437500 27.230000
51382.421875 841460.375000 28.820000
51382.089844 841460.187500 25.090000
51382.128906 841460.312500 22.469999
51381.699219 841459.750000 25.080000
51381.468750 841459.937500 16.440001
51380.960938 841459.000000 25.990000
51380.589844 841458.562500 26.350000
51380.261719 841458.312500 24.469999
51379.878906 841458.000000 23.219999
51379.859375 841457.937500 24.580000
51383.398438 841461.125000 27.139999
51383.058594 841460.750000 26.799999
51382.648438 841460.375000 26.830000
51382.621094 841460.250000 28.730000
51382.378906 841460.250000 22.440001
51382.328125 841460.125000 24.940001
51382.281250 841459.875000 28.459999
51381.921875 841459.687500 25.070000
51381.898438 841459.625000 26.209999
51381.390625 841459.687500 12.580000
51380.828125 841458.562500 24.490000
51380.808594 841458.500000 26.410000
51380.429688 841458.187500 24.440001
51380.078125 841457.812500 24.440001
51383.921875 841460.562500 29.120001
51383.511719 841460.187500 29.150000
51383.519531 841460.187500 28.389999
51383.148438 841459.750000 30.330000
51383.171875 841459.812500 28.799999
51382.738281 841459.312500 30.209999
51382.390625 841459.000000 28.900000
51382.371094 841458.937500 30.059999
51382.019531 841458.750000 26.510000
51382.011719 841458.687500 27.410000
51381.750000 841458.687500 21.700001
51381.699219 841458.500000 24.820000
51381.671875 841458.375000 26.719999
51381.289063 841457.937500 27.020000
51380.988281 841457.812500 23.709999
51380.968750 841457.750000 24.879999
51380.621094 841457.437500 23.690001
51380.601563 841457.375000 24.790001
51380.218750 841456.937500 24.910000
51379.851563 841456.625000 24.540001
51379.871094 841456.687500 23.110001
51385.410156 841461.062500 25.990000
51385.058594 841460.687500 25.879999
51384.628906 841460.125000 28.610001
51384.738281 841460.500000 22.770000
51384.691406 841460.312500 25.600000
51384.269531 841459.750000 29.709999
51384.300781 841459.812500 28.480000
51383.890625 841459.312500 30.480000
51383.898438 841459.375000 29.590000
51383.558594 841459.125000 27.240000
51383.511719 841458.937500 30.240000
51383.531250 841459.000000 28.930000
51383.179688 841458.750000 27.309999
51383.148438 841458.625000 29.030001
51382.800781 841458.312500 27.719999
51382.828125 841458.437500 25.719999
51382.421875 841457.875000 28.160000
51382.460938 841458.062500 25.520000
51382.300781 841458.437500 13.520000
51381.890625 841458.000000 13.210000
51380.949219 841456.500000 25.590000
51380.980469 841456.562500 24.080000
51385.921875 841460.500000 22.870001
51385.558594 841460.125000 22.969999
51385.199219 841459.750000 22.709999
51385.171875 841459.687500 24.059999
51384.781250 841459.250000 24.059999
51384.761719 841459.187500 25.250000
51384.808594 841459.375000 22.580000
51384.300781 841458.562500 29.270000
51383.988281 841458.375000 26.230000
51383.968750 841458.250000 27.690001
51383.660156 841458.187500 22.360001
51383.621094 841458.000000 24.879999
51383.601563 841457.937500 26.250000
51383.378906 841458.250000 15.150000
51383.300781 841457.875000 20.590000
51383.230469 841457.625000 24.910000
51383.250000 841457.687500 23.610001
51383.000000 841457.812500 15.210000
51381.871094 841456.562500 17.059999
51381.011719 841455.375000 23.920000
51380.980469 841455.250000 26.059999
51380.648438 841455.000000 24.219999
51385.750000 841459.625000 22.889999
51384.648438 841458.437500 23.920000
51384.218750 841457.875000 26.799999
51383.921875 841457.750000 22.430000
51383.871094 841457.562500 25.129999
51383.851563 841457.500000 26.750000
51382.519531 841456.562500 17.010000
51382.109375 841456.125000 17.120001
51382.070313 841455.937500 20.049999
51382.089844 841456.000000 18.580000
51381.601563 841455.187500 25.780001
51381.628906 841455.312500 23.900000
51381.648438 841455.437500 22.320000
51381.230469 841454.812500 25.930000
51381.250000 841454.875000 24.389999
51385.058594 841458.375000 23.959999
51384.601563 841457.750000 27.260000
51384.660156 841458.000000 24.020000
51384.691406 841458.062500 22.230000
51384.218750 841457.375000 27.100000
51383.921875 841457.312500 22.400000
51383.140625 841456.500000 22.290001
51382.679688 841455.812500 27.090000
51382.761719 841456.125000 22.100000
51382.308594 841455.437500 27.379999
51382.421875 841455.875000 20.049999
51382.460938 841456.000000 17.020000
51381.988281 841455.125000 25.780001
51382.089844 841455.562500 18.639999
51382.070313 841455.500000 20.090000
51382.011719 841455.250000 23.820000
51381.949219 841455.000000 28.000000
51381.640625 841454.875000 24.240000
51381.609375 841454.750000 25.709999
51381.601563 841454.687500 26.830000
51384.988281 841457.812500 24.059999
51384.570313 841457.250000 27.170000
51384.648438 841457.500000 22.360001
51384.289063 841457.187500 22.450001
51383.890625 841456.750000 22.469999
51383.539063 841456.375000 22.379999
51383.511719 841456.250000 24.330000
51383.140625 841456.000000 22.180000
51383.101563 841455.875000 24.309999
51383.089844 841455.750000 25.400000
51382.710938 841455.312500 27.110001
51382.699219 841455.250000 28.160000
51382.691406 841455.187500 28.889999
51382.320313 841454.875000 28.129999
51382.308594 841454.812500 28.990000
51384.898438 841456.437500 26.559999
51384.539063 841456.062500 26.490000
51384.160156 841455.687500 26.059999
51384.191406 841455.750000 24.250000
51383.750000 841455.187500 27.309999
51383.351563 841454.750000 27.330000
51384.558594 841454.750000 25.510000
51384.601563 841454.875000 23.200001
51382.191406 841467.500000 23.650000
51382.679688 841467.562500 25.450001
51383.058594 841467.562500 29.410000
51379.851563 841466.312500 20.600000
51382.218750 841466.812500 26.590000
51382.140625 841466.687500 29.830000
51382.679688 841466.875000 29.450001
51382.761719 841467.000000 26.450001
51382.781250 841467.062500 25.559999
51382.828125 841467.125000 23.770000
51383.230469 841467.125000 27.480000
51383.140625 841466.937500 30.900000
51383.179688 841467.062500 29.240000
51383.621094 841467.125000 30.340000
51383.609375 841467.125000 30.920000
51384.148438 841467.250000 31.059999
51384.179688 841467.312500 29.889999
51384.710938 841467.500000 29.809999
51384.730469 841467.562500 29.110001
51379.949219 841465.375000 26.400000
51380.488281 841465.687500 23.629999
51380.480469 841465.625000 24.280001
51380.988281 841465.687500 26.240000
51381.621094 841466.125000 21.670000
51382.089844 841466.187500 22.959999
51382.078125 841466.187500 23.440001
51382.128906 841466.250000 21.629999
51382.570313 841466.312500 24.129999
51382.601563 841466.375000 23.059999
51383.039063 841466.312500 27.400000
51382.968750 841466.187500 30.360001
51383.500000 841466.375000 29.730000
51383.460938 841466.312500 30.930000
51383.941406 841466.437500 32.110001
51383.960938 841466.500000 31.240000
51384.441406 841466.625000 31.020000
51384.480469 841466.750000 29.610001
51385.050781 841467.000000 27.639999
51385.000000 841466.875000 29.590000
51385.460938 841467.000000 30.040001
51385.550781 841467.187500 27.020000
51380.199219 841464.312500 29.350000
51380.250000 841464.437500 26.980000
51380.710938 841464.500000 29.139999
51381.210938 841464.750000 27.770000
51381.199219 841464.687500 28.330000
51381.718750 841464.875000 27.889999
51381.789063 841465.000000 25.200001
51382.359375 841465.312500 21.660000
51382.308594 841465.250000 23.490000
51382.828125 841465.375000 24.600000
51383.148438 841465.250000 30.469999
51383.191406 841465.312500 28.889999
51383.250000 841465.437500 26.559999
51383.300781 841465.500000 24.920000
51383.738281 841465.500000 29.330000
51383.699219 841465.437500 30.530001
51383.820313 841465.625000 26.240000
51384.308594 841465.812500 25.459999
51384.269531 841465.750000 26.950001
51384.710938 841465.812500 29.620001
51385.351563 841466.187500 25.120001
51385.378906 841466.250000 24.160000
51385.238281 841466.000000 29.049999
51385.769531 841466.125000 29.639999
51380.078125 841463.687500 28.330000
51380.539063 841463.750000 30.000000
51381.039063 841463.937500 29.670000
51381.609375 841464.187500 28.080000
51382.140625 841464.312500 27.889999
51382.230469 841464.500000 24.209999
51382.738281 841464.687500 23.650000
51383.339844 841465.000000 21.110001
51383.250000 841464.812500 24.840000
51383.269531 841464.875000 23.790001
51383.808594 841465.062500 23.799999
51383.781250 841465.000000 24.940001
51383.738281 841464.937500 26.400000
51384.398438 841465.312500 21.719999
51384.300781 841465.187500 25.280001
51384.351563 841465.250000 23.580000
51384.750000 841465.250000 26.809999
51384.808594 841465.375000 24.639999
51385.320313 841465.500000 24.260000
51385.660156 841465.437500 29.750000
51379.890625 841463.125000 25.549999
51379.839844 841463.000000 27.799999
51380.351563 841463.187500 28.219999
51380.371094 841463.187500 27.350000
51380.839844 841463.312500 28.639999
51381.359375 841463.562500 26.790001
51381.980469 841463.937500 22.260000
51381.890625 841463.750000 26.030001
51382.011719 841464.000000 21.120001
51382.488281 841464.125000 21.059999
51382.351563 841463.875000 26.770000
51382.960938 841464.187500 24.160000
51383.441406 841464.312500 24.049999
51384.058594 841464.625000 21.719999
51384.000000 841464.500000 23.940001
51384.531250 841464.750000 21.760000
51384.480469 841464.687500 23.629999
51384.609375 841464.937500 18.799999
51384.960938 841464.812500 24.670000
51385.488281 841465.000000 24.480000
51385.531250 841465.062500 22.969999
51379.808594 841462.937500 22.469999
51379.738281 841462.750000 25.430000
51380.230469 841462.812500 27.990000
51380.308594 841463.000000 24.410000
51380.699219 841463.000000 28.160000
51381.230469 841463.187500 27.330000
51381.250000 841463.187500 26.660000
51381.289063 841463.312500 24.850000
51381.320313 841463.375000 23.430000
51381.769531 841463.437500 26.030001
