# .PCD v.7 - Point Cloud Data file format
VERSION .7
FIELDS x y z
SIZE 4 4 4
TYPE F F F
COUNT 1 1 1
WIDTH 1329
HEIGHT 1
POINTS 1329
DATA ascii
15144.759766 30846.679688 22.709999
15145.209961 30847.619141 21.650000
15145.089844 30847.169922 22.330000
15144.950195 30846.800781 23.010000
15144.709961 30846.759766 22.850000
15145.179688 30847.609375 21.990000
15145.009766 30847.320313 22.320000
15144.959961 30846.720703 23.480000
15144.669922 30846.820313 23.040001
15145.059570 30847.869141 21.799999
15144.889648 30847.570313 22.129999
15144.660156 30847.449219 22.270000
15144.540039 30847.070313 22.799999
15144.780273 30848.640625 20.660000
15144.849609 30847.630859 22.340000
15143.799805 30850.539063 16.910000
15144.629883 30847.470703 22.549999
15144.559570 30847.000000 23.260000
15144.879883 30848.250000 21.730000
15144.879883 30847.470703 22.930000
15144.580078 30847.539063 22.700001
15144.450195 30847.210938 23.120001
15144.900391 30848.080078 22.330000
15144.799805 30847.609375 22.959999
15144.629883 30847.359375 23.350000
15144.469727 30847.109375 23.600000
15144.830078 30848.210938 22.400000
15144.610352 30848.859375 21.280001
15144.759766 30847.660156 23.160000
15144.360352 30848.740234 21.230000
15144.459961 30847.720703 22.950001
15144.400391 30847.250000 23.610001
15144.740234 30848.380859 22.400000
15144.740234 30847.660156 23.440001
15144.190430 30849.130859 20.870001
15144.459961 30847.679688 23.309999
15143.860352 30849.150391 20.730000
15144.040039 30848.029297 22.469999
15144.480469 30849.070313 21.540001
15144.679688 30847.740234 23.570000
15144.209961 30849.009766 21.400000
15144.469727 30847.599609 23.719999
15143.679688 30849.539063 20.379999
15144.000000 30848.089844 22.650000
15143.410156 30849.429688 20.309999
15144.379883 30849.269531 21.490000
15144.120117 30849.169922 21.420000
15143.650391 30849.550781 20.690001
15143.959961 30848.130859 22.870001
15143.459961 30849.279297 20.900000
15144.200195 30849.699219 21.090000
15143.990234 30849.449219 21.260000
15143.660156 30849.490234 21.110001
15143.900391 30848.230469 22.990000
15143.419922 30849.330078 21.139999
15144.250000 30849.470703 21.750000
15143.870117 30849.699219 21.160000
15143.530273 30849.740234 21.030001
15143.330078 30849.490234 21.170000
15142.919922 30850.419922 19.700001
15144.230469 30849.429688 22.110001
15143.849609 30849.660156 21.530001
15143.559570 30849.619141 21.520000
15143.200195 30850.480469 20.219999
15143.160156 30849.839844 20.900000
15144.250000 30849.300781 22.590000
15143.910156 30849.439453 22.160000
15143.540039 30849.609375 21.840000
15143.200195 30849.689453 21.450001
15142.769531 30850.650391 20.030001
15144.139648 30849.539063 22.510000
15143.839844 30849.570313 22.250000
15143.500000 30849.669922 22.040001
15143.099609 30849.880859 21.450001
15142.690430 30850.789063 20.150000
15144.000000 30849.849609 22.330000
15143.830078 30849.550781 22.559999
15143.660156 30849.240234 22.969999
15143.299805 30850.080078 21.730000
15143.040039 30849.970703 21.629999
15144.129883 30849.429688 23.219999
15143.820313 30849.509766 22.889999
15143.480469 30849.599609 22.690001
15142.129883 30852.810547 17.980000
15140.690430 30856.220703 12.920000
15142.969727 30850.089844 21.750000
15141.679688 30852.939453 17.469999
15144.049805 30849.560547 23.280001
15143.750000 30849.619141 23.000000
15143.580078 30849.330078 23.370001
15143.230469 30849.470703 22.950001
15141.599609 30853.089844 17.650000
15143.889648 30849.919922 23.030001
15143.730469 30849.609375 23.290001
15143.509766 30849.449219 23.459999
15143.110352 30849.689453 22.879999
15141.799805 30852.580078 18.770000
15143.940430 30849.720703 23.570000
15143.580078 30849.919922 23.120001
15143.349609 30849.779297 23.240000
15143.099609 30849.689453 23.139999
15143.870117 30849.839844 23.660000
15143.580078 30849.869141 23.450001
15143.339844 30849.759766 23.520000
15143.129883 30849.589844 23.559999
15143.879883 30849.750000 24.030001
15143.570313 30849.839844 23.750000
15143.309570 30849.769531 23.750000
15141.809570 30853.259766 19.080000
15141.370117 30854.279297 17.730000
15143.049805 30849.740234 23.600000
15143.769531 30849.980469 23.980000
15143.709961 30849.449219 24.500000
15143.339844 30849.679688 24.120001
15143.059570 30849.669922 23.950001
15143.839844 30849.740234 24.520000
15143.669922 30849.500000 24.660000
15143.309570 30849.689453 24.350000
15142.959961 30849.849609 23.950001
15143.740234 30849.949219 24.500000
15143.580078 30849.669922 24.680000
15143.280273 30849.730469 24.530001
15140.509766 30856.060547 16.430000
15142.780273 30850.210938 23.760000
15141.040039 30853.980469 18.920000
15143.730469 30849.910156 24.770000
15143.480469 30849.869141 24.670000
15140.750000 30855.470703 17.580000
15140.990234 30854.039063 19.180000
15143.679688 30849.970703 24.940001
15143.459961 30849.869141 24.900000
15141.240234 30854.289063 19.410000
15140.629883 30855.669922 17.670000
15140.879883 30854.220703 19.280001
15143.660156 30849.980469 25.150000
15140.860352 30856.080078 17.590000
15140.440430 30856.039063 17.549999
15140.730469 30854.500000 19.250000
15140.190430 30855.660156 17.780001
15143.650391 30849.949219 25.400000
15141.389648 30855.689453 18.639999
15140.980469 30855.710938 18.379999
15140.519531 30855.800781 18.209999
15140.650391 30854.640625 19.400000
15140.129883 30855.740234 18.030001
15141.290039 30855.859375 18.770000
15140.830078 30856.000000 18.379999
15140.610352 30855.539063 18.860001
15140.230469 30855.500000 18.680000
15141.009766 30856.500000 18.360001
15140.660156 30856.339844 18.320000
15140.429688 30855.900391 18.760000
15140.059570 30855.800781 18.639999
15141.240234 30855.830078 19.459999
15140.919922 30856.630859 18.549999
15140.530273 30856.580078 18.379999
15140.879883 30854.839844 20.330000
15140.580078 30854.669922 20.320000
15141.379883 30855.400391 20.260000
15141.000000 30855.410156 20.030001
15140.719727 30855.140625 20.290001
15140.480469 30854.839844 20.430000
15141.320313 30855.490234 20.459999
15140.959961 30855.449219 20.299999
15140.530273 30855.519531 20.170000
15140.030273 30855.730469 19.700001
15139.469727 30856.910156 18.290001
15141.320313 30855.419922 20.840000
15140.780273 30855.810547 20.200001
15140.379883 30855.800781 20.170000
15139.849609 30856.080078 19.629999
15141.429688 30855.070313 21.500000
15141.129883 30854.919922 21.480000
15140.730469 30855.859375 20.450001
15140.450195 30855.599609 20.690001
15139.849609 30856.039063 19.990000
15140.870117 30855.480469 21.160000
15140.469727 30855.490234 21.110001
15139.669922 30856.369141 19.920000
15148.610352 30840.400391 14.030000
15148.959961 30840.589844 17.370001
15148.740234 30840.500000 16.540001
15148.929688 30840.820313 16.459999
15148.650391 30840.669922 16.610001
15148.570313 30840.839844 20.020000
15148.349609 30840.740234 19.709999
15148.089844 30840.710938 19.520000
15147.849609 30840.550781 20.049999
15148.500000 30840.990234 19.870001
15148.280273 30840.880859 19.799999
15148.009766 30840.830078 19.780001
15147.780273 30840.710938 19.730000
15148.419922 30841.130859 20.010000
15148.200195 30841.019531 19.850000
15147.929688 30840.990234 19.629999
15147.700195 30840.880859 19.480000
15148.339844 30841.250000 20.190001
15148.129883 30841.179688 19.740000
15147.860352 30841.119141 19.820000
15147.629883 30841.039063 19.330000
15148.269531 30841.410156 20.090000
15148.049805 30841.320313 19.780001
15147.780273 30841.269531 19.740000
15147.549805 30841.189453 19.330000
15148.200195 30841.560547 20.059999
15147.969727 30841.439453 19.980000
15147.700195 30841.419922 19.690001
15147.469727 30841.359375 19.150000
15148.120117 30841.679688 20.180000
15147.889648 30841.580078 20.070000
15147.620117 30841.609375 19.400000
15147.389648 30841.500000 19.270000
15147.360352 30841.699219 17.570000
15147.549805 30841.740234 19.559999
15147.309570 30841.609375 19.559999
15147.990234 30842.220703 18.570000
15147.740234 30841.990234 19.219999
15147.469727 30841.900391 19.469999
15147.450195 30842.189453 17.450001
15147.230469 30841.769531 19.469999
15147.200195 30841.970703 17.969999
15147.910156 30842.339844 18.790001
15147.660156 30842.160156 19.090000
15147.379883 30842.089844 19.200001
15147.179688 30841.779297 20.389999
15147.809570 30842.160156 20.780001
15147.830078 30842.550781 18.490000
15147.580078 30842.380859 18.690001
15147.320313 30842.080078 20.160000
15147.129883 30841.779297 21.340000
15147.740234 30842.310547 20.719999
15147.750000 30842.710938 18.490000
15147.509766 30842.220703 20.530001
15147.250000 30842.220703 20.180000
15147.070313 30841.880859 21.510000
15147.660156 30842.460938 20.660000
15147.440430 30842.369141 20.469999
15147.219727 30842.060547 21.920000
15147.160156 30842.449219 19.750000
15147.000000 30841.990234 21.650000
15147.589844 30842.580078 20.750000
15147.360352 30842.539063 20.320000
15147.129883 30842.269531 21.469999
15146.950195 30842.039063 22.120001
15147.509766 30842.730469 20.740000
15147.290039 30842.599609 20.799999
15147.269531 30842.869141 19.410000
15147.099609 30842.210938 22.510000
15147.019531 30842.619141 20.400000
15146.879883 30842.169922 22.120001
15147.440430 30842.839844 20.889999
15147.410156 30843.410156 18.250000
15147.219727 30842.730469 20.830000
15147.019531 30842.390625 22.260000
15146.950195 30842.769531 20.389999
15146.830078 30842.230469 22.500000
15147.400391 30842.550781 22.860001
15147.370117 30842.960938 21.030001
15147.200195 30842.460938 22.760000
15146.980469 30842.390625 22.860001
15146.780273 30842.320313 22.709999
15147.349609 30842.519531 23.559999
15147.129883 30844.869141 13.130000
15147.150391 30842.490234 23.190001
15147.059570 30843.089844 20.520000
15146.910156 30842.519531 22.879999
15146.690430 30842.509766 22.400000
15147.030273 30845.039063 13.310000
15147.089844 30842.619141 23.190001
15146.870117 30842.550781 23.320000
15146.620117 30842.619141 22.490000
15147.099609 30843.800781 19.330000
15146.929688 30845.199219 13.470000
15147.030273 30842.679688 23.440001
15146.820313 30842.609375 23.559999
15146.580078 30842.679688 22.820000
15147.110352 30843.269531 22.080000
15147.009766 30843.960938 19.280001
15146.969727 30842.779297 23.580000
15146.750000 30842.730469 23.570000
15146.540039 30842.730469 23.180000
15146.379883 30843.220703 21.110001
15147.080078 30843.109375 23.209999
15146.860352 30843.150391 22.629999
15146.679688 30844.050781 19.030001
15146.650391 30843.000000 23.040001
15146.410156 30843.900391 19.400000
15146.440430 30842.949219 22.790001
15146.290039 30843.400391 20.940001
15147.009766 30843.259766 23.120001
15146.799805 30843.210938 22.889999
15146.559570 30843.220703 22.690001
15146.419922 30843.730469 20.680000
15146.410156 30842.949219 23.290001
15146.230469 30843.509766 21.100000
15146.950195 30843.349609 23.260000
15146.740234 30844.560547 18.799999
15146.580078 30844.050781 20.209999
15146.469727 30844.550781 18.299999
15146.500000 30843.310547 22.840000
15146.330078 30843.910156 20.540001
15146.379883 30842.960938 23.740000
15146.870117 30843.539063 23.040001
15146.669922 30844.679688 18.969999
15146.709961 30843.279297 23.580000
15146.440430 30843.400391 23.000000
15146.240234 30844.109375 20.340000
15146.230469 30843.320313 22.870001
15146.830078 30843.519531 23.540001
15146.589844 30844.820313 19.049999
15146.629883 30843.449219 23.410000
15146.440430 30844.250000 20.559999
15146.379883 30843.490234 23.120001
15146.169922 30844.210938 20.520000
15146.169922 30843.419922 22.969999
15145.950195 30844.060547 20.639999
15145.700195 30844.789063 17.980000
15146.769531 30843.650391 23.510000
15146.500000 30844.980469 19.030001
15146.580078 30843.529297 23.559999
15146.339844 30843.550781 23.370001
15146.099609 30844.349609 20.580000
15146.120117 30843.500000 23.170000
15145.870117 30844.210938 20.629999
15146.700195 30843.750000 23.590000
15146.419922 30845.130859 19.059999
15146.509766 30843.669922 23.510000
15146.269531 30843.660156 23.410000
15146.049805 30844.380859 20.969999
15146.059570 30843.609375 23.230000
15146.660156 30843.759766 23.959999
15146.339844 30845.250000 19.190001
15146.450195 30843.769531 23.600000
15146.230469 30844.609375 20.860001
15146.219727 30843.740234 23.559999
15145.959961 30844.560547 20.870001
15145.990234 30843.740234 23.200001
15145.730469 30844.439453 20.870001
15146.259766 30845.390625 19.230000
15146.389648 30843.849609 23.730000
15146.150391 30844.740234 20.920000
15146.040039 30845.179688 19.459999
15146.169922 30843.810547 23.730000
15145.709961 30845.240234 19.080000
15145.929688 30843.839844 23.280001
15145.379883 30845.339844 18.299999
15146.259766 30845.189453 20.360001
15146.089844 30844.830078 21.100000
15145.950195 30845.339844 19.459999
15145.679688 30845.240234 19.600000
15145.320313 30845.410156 18.600000
15145.070313 30846.089844 16.469999
15146.250000 30845.060547 21.190001
15146.009766 30844.990234 21.049999
15145.589844 30845.400391 19.570000
15145.429688 30845.060547 20.280001
15145.230469 30845.589844 18.580000
15146.179688 30845.179688 21.250000
15145.940430 30845.119141 21.080000
15145.799805 30845.609375 19.600000
15145.549805 30845.439453 19.920000
15145.370117 30845.150391 20.450001
15146.019531 30845.640625 20.350000
15145.709961 30845.779297 19.559999
15145.500000 30845.480469 20.270000
15145.330078 30845.179688 20.809999
15145.879883 30846.029297 19.709999
15145.599609 30846.000000 19.400000
15145.440430 30845.580078 20.440001
15145.250000 30846.130859 18.900000
15145.259766 30845.320313 20.820000
15145.009766 30845.949219 18.990000
15145.929688 30845.660156 21.120001
15145.629883 30846.789063 18.120001
15145.469727 30846.320313 19.020000
15145.080078 30846.529297 18.309999
15144.879883 30846.210938 18.760000
15145.910156 30845.619141 21.629999
15145.759766 30846.179688 20.170000
15145.549805 30846.949219 18.160000
15145.639648 30845.650391 21.209999
15145.299805 30846.730469 18.370001
15144.870117 30848.119141 14.660000
15145.000000 30846.660156 18.420000
15144.639648 30846.759766 17.760000
15143.370117 30849.960938 9.090000
15145.830078 30845.759766 21.660000
15145.179688 30847.000000 18.139999
15144.830078 30848.099609 15.260000
15145.139648 30846.189453 20.090000
15144.910156 30846.820313 18.480000
15144.639648 30846.679688 18.459999
15144.339844 30847.449219 16.360001
15143.349609 30849.919922 9.860000
15145.759766 30845.880859 21.719999
15145.490234 30845.919922 21.320000
15145.099609 30846.210938 20.450001
15144.610352 30846.710938 18.860001
15145.440430 30846.869141 19.680000
15145.230469 30847.589844 17.920000
15145.330078 30846.320313 20.719999
15145.009766 30846.390625 20.410000
15144.740234 30846.330078 20.240000
15145.450195 30846.720703 20.430000
15145.169922 30846.689453 20.209999
15145.000000 30847.210938 18.920000
15144.929688 30846.519531 20.510000
15144.700195 30846.369141 20.540001
15145.379883 30846.800781 20.629999
15145.070313 30846.890625 20.129999
15144.919922 30846.490234 20.969999
15144.660156 30846.429688 20.790001
15145.360352 30846.779297 21.070000
15145.049805 30846.859375 20.590000
15144.860352 30846.580078 21.150000
15144.589844 30846.539063 20.930000
15145.250000 30847.000000 20.940001
15145.089844 30846.650391 21.430000
15144.809570 30846.640625 21.370001
15144.459961 30846.810547 20.680000
15145.370117 30846.500000 22.389999
15145.009766 30846.820313 21.430000
15144.780273 30846.650391 21.709999
15144.500000 30846.669922 21.370001
15145.219727 30846.900391 21.870001
15145.049805 30846.619141 22.200001
15144.790039 30846.560547 22.240000
15144.389648 30846.869141 21.280001
15145.160156 30846.990234 22.000000
15144.919922 30846.919922 21.889999
15144.709961 30846.720703 22.230000
15144.269531 30847.099609 21.080000
15145.160156 30846.880859 22.540001
15145.019531 30846.539063 23.030001
15144.549805 30847.070313 21.799999
15144.330078 30846.929688 21.840000
15145.129883 30846.900391 22.840000
15144.929688 30846.720703 22.950001
15144.480469 30847.179688 21.870001
15144.330078 30846.880859 22.290001
15145.080078 30846.960938 23.000000
15144.870117 30846.839844 23.020000
15144.419922 30847.289063 21.959999
15144.190430 30847.169922 21.959999
15145.040039 30846.980469 23.270000
15144.769531 30847.019531 22.940001
15144.280273 30848.369141 20.270000
15144.519531 30846.970703 22.959999
15144.089844 30847.359375 21.879999
15143.589844 30848.509766 19.620001
15144.799805 30847.609375 22.320000
15144.669922 30847.240234 22.790001
15144.400391 30847.220703 22.740000
15144.190430 30847.089844 22.760000
15144.799805 30847.539063 22.740000
15144.660156 30847.199219 23.160000
15144.410156 30847.160156 23.160000
15144.059570 30847.349609 22.540001
15144.759766 30847.560547 23.000000
15144.599609 30847.300781 23.260000
15144.330078 30847.300781 23.180000
15143.959961 30847.529297 22.490000
15144.759766 30847.500000 23.400000
15144.580078 30847.289063 23.549999
15144.280273 30847.369141 23.320000
15143.959961 30847.509766 22.830000
15143.230469 30849.150391 19.840000
15144.629883 30847.789063 23.139999
15144.480469 30847.509766 23.430000
15144.169922 30847.599609 23.170000
15143.929688 30847.539063 23.059999
15143.129883 30849.330078 19.870001
15144.639648 30847.679688 23.600000
15144.179688 30848.210938 22.480000
15143.740234 30849.369141 20.500000
15143.990234 30847.970703 22.820000
15143.879883 30847.619141 23.200001
15142.799805 30850.019531 18.980000
15142.490234 30850.730469 17.820000
15144.009766 30849.369141 21.040001
15143.620117 30849.619141 20.400000
15143.910156 30848.130859 22.820000
15142.790039 30850.009766 19.350000
15143.959961 30849.429688 21.260000
15143.650391 30849.470703 20.969999
15143.849609 30848.230469 22.940001
15142.629883 30850.310547 19.230000
15143.820313 30849.750000 21.059999
15143.599609 30849.529297 21.180000
15143.250000 30849.609375 20.940001
15142.839844 30850.570313 19.469999
15143.009766 30849.429688 21.020000
15143.780273 30849.779297 21.309999
15143.500000 30849.710938 21.200001
15143.200195 30849.669922 21.139999
15142.870117 30850.449219 19.980000
15142.969727 30849.490234 21.240000
15142.599609 30850.289063 19.950001
15143.790039 30849.660156 21.790001
15143.429688 30849.839844 21.309999
15142.910156 30851.140625 19.410000
15143.190430 30849.640625 21.510000
15142.959961 30849.480469 21.559999
15143.750000 30849.699219 22.030001
15143.370117 30849.910156 21.500000
15142.950195 30850.980469 19.980000
15143.150391 30849.679688 21.740000
15142.929688 30849.500000 21.830000
15143.669922 30849.859375 22.090000
15143.339844 30849.929688 21.770000
15143.070313 30849.820313 21.809999
15142.889648 30849.550781 22.030001
15143.780273 30849.470703 22.920000
15143.150391 30850.349609 21.459999
15143.030273 30849.869141 22.030001
15142.730469 30849.859375 21.820000
15143.669922 30849.720703 22.850000
15143.080078 30850.470703 21.600000
15142.059570 30852.970703 17.920000
15142.849609 30850.240234 21.820000
15141.660156 30853.000000 17.770000
15142.740234 30849.800781 22.209999
15143.679688 30849.609375 23.250000
15143.469727 30849.429688 23.320000
15142.799805 30850.310547 22.020000
15141.820313 30852.560547 18.799999
15142.610352 30850.060547 22.129999
15143.660156 30849.599609 23.530001
15143.280273 30849.859375 22.959999
15142.070313 30852.810547 18.870001
15142.980469 30849.859375 22.870001
15141.669922 30852.869141 18.670000
15142.519531 30850.220703 22.200001
15143.540039 30849.869141 23.420000
15143.209961 30850.720703 22.350000
15143.230469 30849.929688 23.139999
15142.980469 30849.820313 23.190001
15141.589844 30852.980469 18.860001
15142.509766 30850.189453 22.510000
15141.290039 30852.810547 18.799999
15143.549805 30849.759766 23.820000
15143.259766 30849.789063 23.570000
15142.910156 30849.929688 23.320000
15142.349609 30850.500000 22.400000
15141.200195 30852.970703 18.940001
15143.530273 30849.750000 24.070000
15143.219727 30849.859375 23.730000
15142.860352 30850.000000 23.480000
15142.280273 30850.619141 22.520000
15143.519531 30849.720703 24.350000
15143.219727 30849.800781 24.040001
15142.769531 30850.179688 23.530001
15141.139648 30853.849609 18.760000
15142.230469 30850.689453 22.690001
15143.440430 30849.880859 24.379999
15141.049805 30855.960938 16.680000
15143.230469 30849.730469 24.379999
15142.740234 30850.189453 23.760000
15141.019531 30854.080078 18.809999
15142.150391 30850.830078 22.799999
15140.790039 30853.710938 19.010000
15140.780273 30856.560547 16.290001
15143.200195 30849.750000 24.590000
15141.290039 30854.310547 18.910000
15140.509766 30856.160156 16.530001
15142.690430 30850.279297 23.910000
15140.950195 30854.179688 19.010000
15142.099609 30850.900391 22.969999
15140.599609 30854.070313 18.889999
15143.400391 30849.859375 24.879999
15141.040039 30855.820313 17.590000
15141.250000 30854.339844 19.209999
15140.860352 30854.320313 19.180000
15142.059570 30850.960938 23.170000
15140.870117 30856.169922 17.510000
15140.740234 30854.529297 19.230000
15140.440430 30854.330078 19.240000
15140.990234 30855.779297 18.330000
15140.429688 30856.150391 17.629999
15140.620117 30854.750000 19.290001
15140.110352 30854.990234 18.750000
15140.969727 30855.769531 18.680000
15140.599609 30855.679688 18.549999
15140.419922 30855.160156 19.110001
15139.940430 30855.310547 18.680000
15140.730469 30856.269531 18.420000
15140.519531 30855.810547 18.730000
15140.139648 30855.720703 18.750000
15139.959961 30855.240234 19.100000
15141.099609 30855.289063 19.870001
15140.629883 30856.470703 18.530001
15140.410156 30856.019531 18.820000
15140.070313 30855.820313 18.969999
15139.759766 30855.609375 18.980000
15141.099609 30855.230469 20.250000
15140.839844 30854.960938 20.360001
15140.450195 30854.939453 20.320000
15139.719727 30855.650391 19.270000
15140.969727 30855.470703 20.280001
15140.690430 30855.250000 20.330000
15140.330078 30855.150391 20.389999
15139.500000 30856.980469 18.260000
15139.639648 30855.779297 19.420000
15140.799805 30855.820313 20.209999
15140.490234 30855.650391 20.190001
15140.000000 30855.839844 19.910000
15140.830078 30855.689453 20.650000
15140.429688 30855.720703 20.420000
15139.820313 30856.179688 19.850000
15139.559570 30855.880859 19.910000
15140.940430 30855.369141 21.290001
15140.400391 30855.740234 20.700001
15139.820313 30856.140625 20.209999
15139.500000 30855.960938 20.129999
15148.660156 30840.259766 14.680000
15148.679688 30840.400391 17.660000
15148.750000 30840.480469 16.549999
15148.660156 30840.650391 16.520000
15147.719727 30840.470703 16.600000
15147.830078 30840.519531 19.860001
15147.610352 30840.439453 19.340000
15147.629883 30840.640625 16.520000
15148.250000 30840.830078 19.870001
15148.030273 30840.740234 19.530001
15147.759766 30840.679688 19.650000
15147.530273 30840.560547 19.650000
15148.169922 30840.970703 19.950001
15147.950195 30840.869141 19.709999
15147.679688 30840.839844 19.490000
15147.450195 30840.750000 19.139999
15148.099609 30841.140625 19.770000
15147.870117 30841.009766 19.750000
15147.599609 30840.980469 19.559999
15147.370117 30840.869141 19.430000
15147.799805 30841.160156 19.709999
15147.530273 30841.169922 19.139999
15147.540039 30841.509766 16.129999
15147.290039 30841.029297 19.350000
15147.940430 30841.390625 20.100000
15147.719727 30841.289063 19.830000
15147.450195 30841.310547 19.280001
15147.209961 30841.210938 19.080000
15147.860352 30841.519531 20.150000
15147.639648 30841.470703 19.610001
15147.370117 30841.460938 19.250000
15147.360352 30841.669922 17.559999
15147.139648 30841.289063 19.660000
15147.790039 30841.699219 19.900000
15147.570313 30841.619141 19.590000
15147.290039 30841.570313 19.570000
15147.280273 30841.789063 17.889999
15147.059570 30841.419922 19.740000
15147.730469 30841.970703 19.110001
15147.490234 30841.779297 19.540001
15147.209961 30841.730469 19.469999
15147.190430 30841.939453 17.950001
15146.980469 30841.599609 19.500000
15147.650391 30842.130859 19.040001
15147.410156 30842.019531 18.910000
15147.150391 30841.740234 20.379999
15146.900391 30841.740234 19.510000
15147.570313 30842.349609 18.670000
15147.330078 30842.029297 19.790001
15147.070313 30841.929688 20.090000
15146.849609 30841.789063 20.170000
15146.780273 30842.089844 18.230000
15147.490234 30842.160156 20.620001
15147.490234 30842.429688 19.070000
15147.259766 30842.140625 19.980000
15147.030273 30841.859375 21.389999
15146.809570 30841.759766 21.250000
15147.410156 30842.310547 20.600000
15147.179688 30842.259766 20.129999
15146.959961 30841.939453 21.660000
15146.750000 30841.859375 21.510000
15147.339844 30842.470703 20.500000
15147.139648 30842.060547 22.049999
15146.889648 30842.089844 21.590000
15146.679688 30841.990234 21.520000
15147.259766 30842.630859 20.379999
15147.080078 30842.099609 22.469999
15147.040039 30842.480469 20.559999
15146.839844 30842.130859 22.100000
15146.639648 30842.009766 22.139999
15147.190430 30842.689453 20.840000
15146.959961 30842.660156 20.350000
15146.780273 30842.230469 22.250000
15146.660156 30842.750000 19.650000
15146.570313 30842.119141 22.240000
15147.150391 30842.419922 22.730000
15146.950195 30842.359375 22.500000
15146.879883 30842.789063 20.440001
15146.719727 30842.279297 22.620001
15146.519531 30842.189453 22.570000
15147.099609 30842.429688 23.240000
15146.900391 30842.390625 22.920000
15146.669922 30842.359375 22.879999
15146.589844 30842.710938 21.260000
15146.450195 30842.320313 22.549999
15147.030273 30842.560547 23.219999
15146.959961 30843.199219 20.540001
15146.759766 30844.849609 13.310000
15146.849609 30842.429688 23.330000
15146.780273 30842.779297 21.770000
15146.580078 30842.570313 22.500000
15146.419922 30842.349609 23.010000
15146.980469 30842.630859 23.440001
15146.919922 30843.029297 21.820000
15146.780273 30842.580078 23.230000
15146.709961 30842.919922 21.799999
15146.540039 30842.580078 23.040001
15146.429688 30843.019531 21.180000
15146.370117 30842.410156 23.330000
15146.160156 30843.060547 20.410000
15146.929688 30842.660156 23.809999
15146.860352 30843.109375 22.049999
15146.740234 30842.570313 23.760000
15146.480469 30842.689453 23.129999
15146.330078 30842.449219 23.650000
15146.820313 30843.080078 22.709999
15146.690430 30843.880859 19.549999
15146.660156 30842.779297 23.420000
15146.410156 30842.810547 23.120001
15146.259766 30843.369141 20.920000
15146.259766 30842.580078 23.620001
15146.759766 30843.119141 23.049999
15146.540039 30843.140625 22.580000
15146.280273 30843.189453 22.190001
15146.200195 30842.710938 23.620001
15145.969727 30843.359375 20.990000
15146.700195 30843.230469 23.139999
15146.509766 30844.279297 19.209999
15146.490234 30843.179688 22.910000
15146.320313 30843.929688 20.040001
15146.309570 30842.960938 23.540001
15146.160156 30842.740234 23.950001
15146.660156 30843.220703 23.629999
15146.440430 30843.250000 23.120001
15146.259766 30843.970703 20.459999
15146.179688 30843.300781 22.740000
15146.000000 30843.900391 20.540001
15146.120117 30842.800781 24.200001
15145.980469 30843.210938 22.660000
15145.839844 30843.580078 21.260000
15146.580078 30843.390625 23.440001
15146.419922 30844.220703 20.549999
15146.360352 30843.429688 22.930000
15146.169922 30844.160156 20.320000
15146.129883 30843.369141 22.990000
15145.919922 30844.050781 20.520000
15145.900391 30843.339844 22.660000
15145.719727 30843.849609 20.790001
15146.519531 30843.509766 23.459999
15146.309570 30843.460938 23.280001
15146.099609 30844.300781 20.340000
15146.070313 30843.480469 23.059999
15145.860352 30844.150391 20.700001
15145.849609 30843.429688 22.790001
15145.509766 30844.339844 19.620001
15146.459961 30843.630859 23.490000
15146.160156 30844.970703 19.020000
15146.250000 30843.570313 23.320000
15146.040039 30844.349609 20.690001
15146.009766 30843.570313 23.190001
15145.790039 30843.539063 22.900000
15145.410156 30844.560547 19.410000
15145.259766 30844.960938 17.930000
15146.400391 30843.720703 23.610001
15146.190430 30843.660156 23.440001
15145.990234 30844.419922 20.950001
15145.950195 30843.669922 23.290001
15145.700195 30844.439453 20.740000
15145.719727 30843.650391 22.959999
15145.150391 30845.160156 17.780001
15146.339844 30843.800781 23.750000
15146.139648 30844.679688 20.969999
15146.000000 30845.240234 19.139999
15146.139648 30843.740234 23.600000
15145.839844 30844.800781 20.230000
15145.879883 30843.800781 23.250000
15145.620117 30844.599609 20.730000
15145.370117 30845.349609 18.160000
15145.660156 30843.750000 23.059999
15145.089844 30845.259766 18.010000
15146.070313 30844.789063 21.110001
15145.919922 30845.390625 19.200001
15145.839844 30844.679688 21.090000
15145.700195 30845.160156 19.500000
15145.309570 30845.410156 18.510000
15145.070313 30846.140625 16.230000
15145.230469 30844.839844 20.000000
15145.080078 30845.230469 18.670000
15144.589844 30846.490234 14.650000
15145.980469 30845.000000 20.900000
15145.839844 30845.560547 19.170000
15145.759766 30844.820313 21.090000
15145.589844 30845.410156 19.200001
15145.410156 30845.039063 20.209999
15144.969727 30846.320313 16.290001
15145.150391 30844.960938 20.059999
15145.929688 30845.029297 21.240000
15145.799805 30845.529297 19.719999
15145.530273 30845.500000 19.430000
15145.330078 30845.189453 20.209999
15145.120117 30844.990234 20.459999
15145.709961 30845.720703 19.639999
15145.469727 30845.560547 19.719999
15145.299805 30845.169922 20.709999
15145.040039 30845.140625 20.440001
15145.620117 30845.890625 19.620001
15145.400391 30845.689453 19.809999
15145.230469 30845.320313 20.709999
15145.009766 30845.910156 19.020000
15144.980469 30845.240234 20.590000
15145.509766 30846.130859 19.430000
15145.120117 30846.449219 18.200001
15144.900391 30847.160156 16.240000
15144.429688 30848.660156 12.140000
15144.900391 30846.160156 18.809999
15144.849609 30845.509766 20.230000
15145.620117 30845.619141 21.200001
15145.309570 30846.710938 18.330000
15145.049805 30846.570313 18.370001
15144.730469 30846.529297 18.309999
15144.500000 30847.179688 16.520000
15144.400391 30846.560547 17.820000
15145.580078 30845.609375 21.620001
15145.200195 30846.949219 18.200001
15144.959961 30847.789063 16.010000
15144.950195 30846.769531 18.309999
15144.879883 30846.050781 20.000000
15144.650391 30846.679688 18.389999
15144.410156 30846.480469 18.520000
15144.089844 30847.250000 16.420000
15145.500000 30845.789063 21.549999
15145.190430 30845.919922 20.889999
15144.830078 30846.099609 20.290001
15144.549805 30846.849609 18.400000
15144.339844 30846.580078 18.730000
15145.320313 30846.269531 20.760000
15145.049805 30846.259766 20.459999
15144.769531 30846.220703 20.420000
15144.379883 30846.449219 19.510000
15145.179688 30846.609375 20.309999
15144.929688 30846.529297 20.200001
15144.709961 30846.310547 20.600000
15144.299805 30846.580078 19.610001
15145.110352 30846.730469 20.440001
15144.849609 30846.669922 20.280001
15144.620117 30846.460938 20.639999
15144.379883 30846.339844 20.590000
15145.080078 30846.730469 20.799999
15144.860352 30846.539063 20.950001
15144.589844 30846.470703 21.000000
15144.240234 30846.619141 20.330000
15145.080078 30846.619141 21.440001
15144.860352 30846.449219 21.530001
15144.509766 30846.640625 21.000000
15144.230469 30846.599609 20.770000
15145.049805 30846.619141 21.770000
15144.769531 30846.640625 21.459999
15144.429688 30846.769531 21.080000
15144.280273 30846.449219 21.469999
15145.030273 30846.570313 22.230000
15144.780273 30846.529297 22.040001
15144.519531 30846.500000 22.010000
15144.250000 30846.480469 21.770000
15144.889648 30846.919922 21.809999
15144.709961 30846.669922 22.080000
15144.379883 30846.789063 21.740000
15144.120117 30846.730469 21.590000
15144.990234 30846.519531 22.969999
15144.799805 30847.099609 21.750000
15144.589844 30846.919922 21.879999
15144.280273 30846.970703 21.639999
15144.049805 30846.869141 21.610001
15144.879883 30846.750000 22.809999
15144.629883 30846.750000 22.580000
15144.299805 30846.869141 22.230000
15144.009766 30846.910156 21.850000
15144.860352 30846.750000 23.120001
15144.459961 30847.130859 22.070000
15144.179688 30847.119141 22.010000
15143.900391 30847.119141 21.740000
15144.839844 30846.720703 23.469999
15144.389648 30847.259766 22.110001
15144.269531 30846.849609 22.900000
15143.790039 30847.330078 21.639999
15143.339844 30848.359375 19.580000
15144.570313 30847.419922 22.360001
15144.440430 30847.050781 22.860001
15144.169922 30847.050781 22.760000
15143.919922 30847.000000 22.629999
15143.040039 30849.000000 18.690001
15144.570313 30847.339844 22.809999
15144.450195 30846.980469 23.309999
15144.089844 30847.210938 22.760000
15143.730469 30847.390625 22.150000
15144.530273 30847.390625 23.010000
15144.349609 30847.179688 23.170000
15144.000000 30847.369141 22.719999
15143.679688 30847.470703 22.320000
15143.080078 30848.830078 19.770000
15144.559570 30847.230469 23.590000
15144.320313 30847.199219 23.430000
15143.929688 30847.500000 22.780001
15143.650391 30847.500000 22.549999
15142.990234 30848.980469 19.830000
15144.379883 30847.669922 23.059999
15144.230469 30847.369141 23.379999
15143.929688 30847.460938 23.139999
15142.900391 30849.150391 19.889999
15143.830078 30849.130859 20.850000
15143.929688 30848.099609 22.370001
15143.820313 30847.669922 23.040001
15142.530273 30849.919922 18.809999
15143.610352 30849.650391 20.299999
15143.919922 30848.060547 22.740000
15143.469727 30849.210938 20.780001
15143.629883 30848.070313 22.650000
15143.200195 30849.089844 20.910000
15142.559570 30849.810547 19.400000
15143.650391 30849.460938 20.940001
15143.849609 30848.179688 22.820000
15143.400391 30849.320313 20.910000
15143.110352 30849.250000 20.959999
15142.669922 30850.279297 19.240000
15142.459961 30850.000000 19.400000
15143.610352 30849.519531 21.150000
15143.339844 30849.429688 21.040001
15143.019531 30849.410156 21.000000
15142.570313 30850.470703 19.299999
15142.769531 30849.279297 21.000000
15142.410156 30850.050781 19.660000
15143.459961 30849.839844 20.950001
15143.240234 30849.619141 21.040001
15142.889648 30850.480469 19.730000
15142.959961 30849.509766 21.160000
15142.599609 30850.349609 19.830000
15142.759766 30849.259766 21.340000
15142.280273 30850.310547 19.610001
15143.530273 30849.580078 21.650000
15143.200195 30850.470703 20.340000
15143.160156 30849.750000 21.129999
15142.799805 30850.650391 19.830000
15142.990234 30849.410156 21.629999
15142.730469 30849.289063 21.590000
15142.209961 30850.419922 19.770000
15143.459961 30849.699219 21.770000
15143.139648 30849.750000 21.430000
15142.910156 30849.539063 21.709999
15142.700195 30849.320313 21.850000
15143.429688 30849.699219 22.049999
15143.040039 30849.919922 21.480000
15142.889648 30849.550781 21.990000
15142.620117 30849.470703 21.930000
15143.549805 30849.320313 22.900000
15143.240234 30850.140625 21.709999
15141.129883 30855.699219 13.560000
15142.969727 30850.050781 21.610001
15142.790039 30849.730469 22.000000
15142.549805 30849.580078 22.040001
15142.139648 30852.939453 17.969999
15142.870117 30850.230469 21.660000
15141.750000 30852.980469 17.610001
15140.480469 30856.080078 13.110000
15142.709961 30849.880859 22.040001
15142.490234 30849.679688 22.170000
15141.900391 30850.949219 20.320000
15143.500000 30849.330078 23.420000
15143.139648 30849.529297 22.910000
15141.660156 30853.130859 17.780001
15142.610352 30850.050781 22.100000
15141.559570 30852.429688 18.709999
15142.370117 30849.900391 22.090000
15143.410156 30849.490234 23.430000
15143.019531 30849.769531 22.830000
15141.830078 30852.650391 18.830000
15142.570313 30850.109375 22.299999
15141.429688 30852.689453 18.650000
15142.290039 30850.039063 22.180000
15143.219727 30849.939453 23.080000
15143.009766 30849.750000 23.129999
15142.490234 30850.250000 22.379999
15141.330078 30852.859375 18.730000
15142.290039 30850.019531 22.490000
15143.259766 30849.779297 23.540001
15143.019531 30849.669922 23.500000
15142.700195 30849.730469 23.370001
15142.349609 30850.519531 22.330000
15140.740234 30854.140625 17.410000
15142.139648 30850.310547 22.389999
15143.250000 30849.750000 23.820000
15142.900391 30849.919922 23.420000
15142.629883 30849.859375 23.430000
15142.259766 30850.689453 22.389999
15142.089844 30850.369141 22.580000
15140.849609 30853.000000 18.969999
15143.219727 30849.750000 24.059999
15142.959961 30849.720703 23.930000
15142.410156 30850.310547 23.129999
15140.910156 30853.650391 18.740000
15142.030273 30850.480469 22.719999
15143.219727 30849.710938 24.350000
15142.830078 30849.990234 23.820000
15142.480469 30850.119141 23.600000
15140.830078 30853.779297 18.910000
15141.910156 30850.699219 22.709999
15140.519531 30853.619141 18.850000
15143.190430 30849.720703 24.570000
15140.469727 30856.550781 16.059999
15142.690430 30850.269531 23.750000
15141.049805 30854.150391 18.870001
15142.440430 30850.160156 23.809999
15140.679688 30854.070313 18.900000
15141.849609 30850.789063 22.879999
15140.370117 30853.900391 18.840000
15140.830078 30855.580078 17.639999
15141.009766 30854.179688 19.170000
15142.049805 30850.990234 23.090000
15140.620117 30854.160156 19.120001
15141.839844 30850.779297 23.139999
15140.679688 30855.880859 17.620001
15140.919922 30854.320313 19.320000
15140.469727 30854.449219 19.100000
15141.709961 30851.019531 23.129999
15140.219727 30854.150391 19.200001
15140.519531 30856.199219 17.590000
15140.790039 30854.589844 19.320000
15140.230469 30855.880859 17.719999
15140.379883 30854.589844 19.250000
15141.709961 30850.990234 23.420000
15139.849609 30854.880859 18.610001
15140.709961 30855.650391 18.580000
15140.679688 30854.789063 19.400000
15140.179688 30855.000000 19.080000
15139.700195 30855.150391 18.600000
15140.690430 30855.630859 18.940001
15140.299805 30855.609375 18.740000
15139.929688 30855.490234 18.809999
15139.750000 30855.000000 19.120001
15140.469727 30856.089844 18.730000
15140.150391 30855.890625 18.740000
15139.820313 30855.679688 18.910000
15139.610352 30855.250000 19.120001
15140.919922 30854.919922 20.389999
15140.589844 30854.830078 20.290001
15139.830078 30855.619141 19.309999
15139.549805 30855.339844 19.330000
15140.750000 30855.269531 20.299999
15140.500000 30854.960938 20.440001
15140.150391 30854.869141 20.500000
15139.719727 30855.800781 19.420000
15140.570313 30855.640625 20.200001
15140.139648 30855.740234 19.870001
15139.769531 30855.660156 19.910000
15139.919922 30856.179688 19.700001
15139.589844 30856.000000 19.809999
15139.259766 30855.839844 19.660000
15140.469727 30855.769531 20.660000
15139.860352 30856.269531 19.910000
15139.580078 30855.980469 20.139999
15139.269531 30855.789063 20.030001
15147.690430 30840.160156 13.300000
15147.540039 30840.150391 16.910000
15147.730469 30840.480469 16.620001
15147.459961 30840.310547 16.980000
15147.839844 30840.419922 20.139999
15147.599609 30840.490234 18.650000
15147.639648 30840.660156 16.469999
15147.370117 30840.519531 16.490000
15148.009766 30840.750000 19.459999
15147.769531 30840.580078 19.920000
15147.509766 30840.560547 19.600000
15147.280273 30840.419922 19.879999
15147.919922 30840.849609 19.850000
15147.700195 30840.759766 19.580000
15147.429688 30840.720703 19.480000
15147.200195 30840.570313 19.790001
15147.849609 30840.990234 19.900000
15147.620117 30840.900391 19.610001
15147.349609 30840.869141 19.459999
15147.120117 30840.750000 19.440001
15147.769531 30841.150391 19.760000
15147.549805 30841.050781 19.610001
15147.280273 30841.009766 19.549999
15147.040039 30840.900391 19.350000
15147.700195 30841.289063 19.850000
15147.480469 30841.250000 19.150000
15147.509766 30841.609375 16.139999
15147.200195 30841.169922 19.370001
15146.959961 30841.060547 19.260000
15146.910156 30841.400391 16.139999
15147.629883 30841.500000 19.330000
15147.400391 30841.390625 19.219999
15147.120117 30841.269531 19.770000
15146.879883 30841.199219 19.250000
15147.549805 30841.589844 19.740000
15147.320313 30841.519531 19.330000
15147.320313 30841.759766 17.600000
15147.040039 30841.449219 19.480000
15146.799805 30841.349609 19.219999
15147.469727 30841.759766 19.580000
15147.240234 30841.650391 19.450001
15147.240234 30841.880859 17.910000
15146.959961 30841.630859 19.200001
15146.719727 30841.519531 19.080000
15147.389648 30841.949219 19.350000
15147.160156 30841.699219 20.120001
15146.889648 30841.679688 19.920000
15146.669922 30841.550781 19.940001
15147.309570 30841.980469 20.070000
15147.089844 30841.810547 20.299999
15146.820313 30841.810547 19.980000
15146.589844 30841.679688 20.040001
15147.240234 30841.820313 21.790001
15147.240234 30842.179688 19.730000
15147.019531 30841.810547 21.180000
15146.790039 30841.679688 21.660000
15146.740234 30841.980469 19.860001
15146.519531 30841.810547 20.120001
15147.160156 30842.220703 20.299999
15146.950195 30841.929688 21.280001
15146.700195 30841.900391 21.170000
15146.500000 30841.730469 21.459999
15147.099609 30842.050781 21.950001
15146.889648 30842.000000 21.620001
15146.639648 30841.960938 21.559999
15146.450195 30841.810547 21.790001
15146.250000 30842.490234 17.900000
15147.040039 30842.099609 22.370001
15146.820313 30842.109375 21.750000
15146.589844 30842.000000 22.059999
15146.389648 30841.900391 22.000000
15146.969727 30842.220703 22.400000
15146.940430 30842.570313 20.730000
15146.759766 30842.220703 21.850000
15146.519531 30842.130859 22.080000
15146.349609 30841.929688 22.559999
15146.900391 30842.349609 22.389999
15146.709961 30842.179688 22.690001
15146.469727 30842.199219 22.379999
15146.259766 30842.109375 22.260000
15146.849609 30842.330078 23.080000
15146.639648 30842.349609 22.500000
15146.419922 30842.269531 22.670000
15146.280273 30842.800781 20.190001
15146.219727 30842.160156 22.690001
15146.780273 30842.539063 22.719999
15146.589844 30842.369141 22.980000
15146.339844 30842.419922 22.580000
15146.150391 30842.289063 22.680000
15146.719727 30842.609375 22.959999
15146.679688 30842.890625 21.820000
15146.509766 30842.570313 22.700001
15146.330078 30842.330078 23.500000
15146.110352 30842.330078 23.059999
15145.919922 30842.900391 20.520000
15146.669922 30842.609375 23.490000
15146.450195 30842.669922 22.820000
15146.320313 30843.300781 20.260000
15146.269531 30842.470703 23.469999
15146.030273 30842.490234 22.879999
15146.599609 30842.810547 23.209999
15146.410156 30842.679688 23.280001
15146.230469 30842.500000 23.820000
15146.040039 30842.400391 23.820000
15146.500000 30843.109375 22.580000
15146.410156 30843.609375 20.680000
15146.339844 30842.839844 23.160000
15146.150391 30842.669922 23.639999
15145.959961 30842.560547 23.639999
15145.669922 30843.380859 20.360001
15146.440430 30843.220703 22.680000
15146.320313 30843.820313 20.420000
15146.299805 30842.830078 23.660000
15146.120117 30842.660156 24.120001
15145.879883 30842.730469 23.480000
15145.669922 30843.320313 21.170000
15146.429688 30843.009766 23.850000
15146.250000 30843.929688 20.540001
15146.219727 30843.029297 23.379999
15146.059570 30843.660156 21.100000
15146.030273 30842.890625 23.750000
15145.660156 30844.070313 19.389999
15145.339844 30845.070313 15.580000
15145.809570 30842.859375 23.440001
15146.320313 30843.390625 23.000000
15146.150391 30844.160156 20.240000
15146.120117 30843.269531 22.990000
15145.860352 30843.310547 22.680000
15145.589844 30844.169922 19.610001
15145.370117 30844.869141 17.020000
15145.740234 30842.980469 23.450001
15145.360352 30844.009766 19.690001
15146.259766 30843.460938 23.170000
15146.089844 30844.230469 20.520000
15146.030273 30843.480469 22.709999
15145.870117 30844.080078 20.610001
15145.790039 30843.439453 22.680000
15145.509766 30844.320313 19.650000
15145.230469 30844.300781 19.260000
15145.000000 30844.890625 17.010000
15146.200195 30843.570313 23.230000
15146.019531 30844.349609 20.660000
15145.980469 30843.550781 22.920000
15145.410156 30844.519531 19.510000
15145.209961 30845.119141 17.330000
15145.250000 30844.169922 20.230000
15144.860352 30845.189453 16.549999
15146.150391 30843.619141 23.480000
15145.919922 30843.660156 23.010000
15145.669922 30843.650391 22.860001
15145.169922 30845.140625 17.860001
15145.150391 30844.369141 20.110001
15144.809570 30845.250000 16.959999
15146.089844 30843.699219 23.610001
15145.879883 30844.580078 20.860001
15145.849609 30843.789063 22.980000
15145.639648 30844.509766 20.709999
15145.110352 30845.230469 18.110001
15145.120117 30844.380859 20.570000
15145.669922 30845.269531 19.120001
15145.349609 30845.369141 18.360001
15145.240234 30844.750000 20.240000
15145.070313 30845.240234 18.600000
15145.019531 30844.570313 20.410000
15143.969727 30847.250000 11.660000
15145.589844 30845.380859 19.250000
15145.440430 30844.949219 20.250000
15145.120117 30845.009766 19.879999
15144.530273 30846.699219 14.670000
15144.929688 30844.750000 20.290001
15145.530273 30845.449219 19.520000
15145.360352 30845.089844 20.250000
15145.059570 30845.099609 20.049999
15144.860352 30844.869141 20.379999
15145.480469 30845.480469 19.889999
15145.299805 30845.160156 20.490000
15145.000000 30845.189453 20.230000
15144.790039 30844.990234 20.469999
15144.570313 30845.539063 18.790001
15145.429688 30845.529297 20.219999
15145.230469 30845.289063 20.530001
15144.919922 30845.339844 20.230000
15144.709961 30845.140625 20.480000
15144.389648 30845.919922 18.170000
15145.200195 30846.220703 18.799999
15144.919922 30847.199219 16.139999
15145.169922 30845.359375 20.750000
15144.860352 30846.339844 18.080000
15144.820313 30845.539063 20.110001
15144.400391 30845.830078 18.910000
15145.059570 30846.550781 18.379999
15144.839844 30846.289063 18.670000
15144.410156 30846.570313 17.799999
15144.209961 30846.250000 18.230000
15144.950195 30846.769531 18.270000
15144.620117 30846.839844 17.719999
15144.139648 30847.210938 16.540001
15143.929688 30846.859375 17.080000
15145.089844 30846.169922 20.209999
15144.799805 30846.199219 19.790001
15144.610352 30846.759766 18.410000
15143.509766 30850.009766 10.110000
15144.330078 30846.609375 18.620001
15144.049805 30846.519531 18.469999
15145.040039 30846.230469 20.480000
15144.679688 30846.449219 19.610001
15144.410156 30847.259766 17.530001
15144.339844 30846.519531 19.309999
15144.150391 30846.240234 19.639999
15143.910156 30846.810547 18.190001
15143.639648 30847.449219 16.500000
15144.950195 30846.429688 20.410000
15144.650391 30846.449219 20.010000
15144.269531 30846.630859 19.459999
15144.089844 30846.349609 19.799999
15143.780273 30847.050781 18.030001
15144.870117 30846.539063 20.520000
15144.599609 30846.500000 20.299999
15144.370117 30847.179688 18.629999
15144.179688 30846.800781 19.480000
15144.019531 30846.449219 19.959999
15144.849609 30846.509766 20.980000
15144.589844 30846.460938 20.780001
15144.169922 30846.759766 19.969999
15143.889648 30847.480469 18.180000
15143.910156 30846.669922 19.850000
15144.820313 30846.509766 21.340000
15144.500000 30846.640625 20.770000
15144.209961 30846.619141 20.690001
15143.759766 30846.960938 19.549999
15144.740234 30846.650391 21.400000
15144.519531 30847.349609 19.790001
15144.440430 30846.730469 20.920000
15144.240234 30846.490234 21.340000
15143.679688 30847.099609 19.629999
15144.759766 30846.519531 22.020000
15144.450195 30846.630859 21.500000
15144.209961 30846.500000 21.670000
15143.980469 30846.390625 21.650000
15143.669922 30847.099609 20.040001
15144.660156 30846.720703 21.920000
15144.320313 30846.919922 21.219999
15144.099609 30846.710938 21.559999
15143.919922 30846.490234 21.780001
15143.650391 30847.099609 20.420000
15144.620117 30846.759766 22.170000
15144.259766 30847.009766 21.350000
15144.059570 30846.779297 21.770000
15143.879883 30846.529297 22.040001
15144.509766 30846.990234 21.990000
15144.250000 30846.960938 21.790001
15143.959961 30846.970703 21.670000
15143.629883 30847.070313 21.209999
15144.429688 30847.130859 22.000000
15144.259766 30846.880859 22.309999
15143.809570 30847.269531 21.370001
15143.540039 30847.230469 21.209999
15144.349609 30847.300781 21.980000
15144.089844 30847.250000 21.830000
15143.730469 30847.419922 21.400000
15143.370117 30847.580078 20.860001
15144.440430 30846.939453 23.020000
15144.099609 30847.169922 22.309999
15143.549805 30848.609375 19.530001
15143.080078 30848.929688 18.799999
15143.299805 30847.689453 20.969999
