# .PCD v.7 - Point Cloud Data file format
VERSION .7
FIELDS x y z
SIZE 4 4 4
TYPE F F F
COUNT 1 1 1
WIDTH 1330
HEIGHT 1
POINTS 1330
DATA ascii
15034.160156 30777.410156 16.680000
15033.900391 30777.220703 16.770000
15034.660156 30777.910156 16.110001
15034.519531 30777.890625 14.020000
15033.780273 30777.380859 16.830000
15034.540039 30778.070313 16.120001
15033.679688 30777.550781 16.650000
15034.429688 30778.240234 16.100000
15034.280273 30778.279297 13.680000
15033.919922 30778.160156 13.690000
15033.559570 30777.720703 16.520000
15034.339844 30778.449219 15.670000
15034.440430 30778.660156 13.840000
15034.150391 30778.449219 13.810000
15033.700195 30778.050781 16.719999
15033.799805 30778.359375 13.550000
15033.450195 30777.880859 16.590000
15033.509766 30778.160156 13.460000
15034.219727 30778.630859 15.600000
15034.009766 30778.619141 13.950000
15033.589844 30778.210938 16.730000
15033.669922 30778.550781 13.490000
15033.330078 30778.029297 16.709999
15033.379883 30778.339844 13.520000
15034.179688 30779.019531 13.880000
15033.879883 30778.779297 14.070000
15033.469727 30778.339844 17.030001
15033.209961 30778.179688 16.860001
15034.000000 30779.019531 15.200000
15033.700195 30778.769531 15.660000
15033.750000 30778.960938 14.090000
15033.889648 30779.259766 14.760000
15033.589844 30778.939453 15.630000
15033.750000 30779.380859 15.160000
15033.459961 30779.080078 15.820000
15033.139648 30779.210938 14.140000
15033.620117 30779.480469 15.660000
15033.349609 30779.380859 14.990000
15033.400391 30779.849609 11.790000
15033.019531 30779.369141 14.260000
15033.500000 30779.660156 15.610000
15033.230469 30779.580078 14.860000
15032.889648 30779.529297 14.420000
15032.879883 30779.880859 12.070000
15032.559570 30779.669922 11.940000
15033.379883 30779.890625 15.250000
15033.429688 30780.439453 12.000000
15033.120117 30780.199219 12.080000
15032.740234 30780.039063 12.340000
15032.429688 30779.839844 12.150000
15033.290039 30780.509766 12.710000
15032.980469 30780.380859 12.190000
15032.599609 30780.230469 12.330000
15032.290039 30780.029297 12.200000
15033.139648 30780.339844 14.720000
15033.150391 30780.839844 12.010000
15032.860352 30780.150391 14.640000
15032.839844 30780.539063 12.410000
15032.509766 30780.019531 14.770000
15032.469727 30780.390625 12.560000
15033.009766 30780.509766 14.790000
15032.730469 30780.310547 14.790000
15032.700195 30780.720703 12.460000
15032.389648 30780.179688 14.860000
15032.059570 30780.199219 13.560000
15032.889648 30780.699219 14.690000
15032.879883 30781.109375 12.640000
15032.610352 30780.460938 14.900000
15032.259766 30780.349609 14.900000
15032.209961 30780.650391 13.230000
15031.929688 30780.359375 13.720000
15031.849609 30780.699219 11.750000
15031.759766 30781.089844 9.570000
15032.740234 30781.320313 12.570000
15032.480469 30780.679688 14.710000
15032.440430 30781.050781 12.810000
15032.070313 30780.900391 12.940000
15031.980469 30781.369141 10.540000
15031.809570 30780.509766 13.920000
15031.709961 30780.869141 11.940000
15031.650391 30781.109375 10.620000
15032.629883 30781.070313 14.680000
15032.599609 30781.470703 12.790000
15032.339844 30780.900391 14.490000
15032.299805 30781.240234 12.820000
15031.929688 30781.070313 13.080000
15031.700195 30780.589844 14.470000
15031.580078 30781.050781 12.060000
15031.509766 30781.310547 10.730000
15032.509766 30781.230469 14.750000
15032.219727 30781.050781 14.620000
15031.750000 30781.470703 12.080000
15031.469727 30781.140625 12.640000
15032.379883 30781.429688 14.700000
15032.080078 30781.269531 14.540000
15031.740234 30781.099609 14.770000
15031.660156 30781.470703 13.050000
15031.450195 30780.919922 14.650000
15031.320313 30781.349609 12.560000
15032.250000 30781.619141 14.710000
15032.190430 30782.039063 12.950000
15031.959961 30781.400391 14.770000
15031.509766 30781.699219 12.880000
15031.309570 30781.130859 14.520000
15031.129883 30781.720703 11.740000
15032.129883 30781.750000 14.940000
15031.839844 30781.550781 14.920000
15031.480469 30781.500000 14.640000
15031.200195 30781.259766 14.780000
15031.990234 30781.949219 14.860000
15031.700195 30781.769531 14.760000
15031.330078 30781.720703 14.470000
15031.139648 30781.240234 15.670000
15031.870117 30782.140625 14.870000
15031.589844 30781.900391 14.960000
15031.360352 30781.369141 16.700001
15031.169922 30782.019531 14.030000
15031.080078 30781.220703 16.530001
15031.389648 30782.339844 13.980000
15031.240234 30781.529297 16.719999
15031.030273 30782.230469 13.920000
15030.990234 30781.310547 16.860001
15031.559570 30782.699219 14.180000
15031.259766 30782.509766 14.070000
15031.150391 30781.619141 17.030001
15030.889648 30782.419922 13.950000
15030.870117 30781.480469 16.850000
15031.419922 30782.919922 14.090000
15031.120117 30782.740234 13.940000
15031.009766 30781.830078 16.879999
15030.780273 30781.560547 17.200001
15031.309570 30783.039063 14.340000
15030.980469 30782.929688 13.940000
15030.830078 30781.310547 18.799999
15030.589844 30781.900391 16.549999
15031.160156 30783.279297 14.210000
15030.849609 30783.109375 13.970000
15030.500000 30781.990234 16.850000
15030.299805 30782.349609 16.170000
15037.410156 30773.429688 17.370001
15038.429688 30772.919922 12.420000
15037.889648 30772.480469 11.510000
15037.589844 30772.240234 11.400000
15037.320313 30773.580078 17.260000
15038.070313 30773.220703 13.550000
15038.000000 30772.880859 12.300000
15037.700195 30772.710938 11.800000
15037.450195 30772.439453 11.410000
15037.299805 30773.699219 16.790001
15037.889648 30773.070313 12.170000
15037.509766 30772.939453 12.120000
15038.099609 30772.589844 8.640000
15037.209961 30772.720703 12.050000
15037.299805 30773.810547 16.180000
15037.139648 30773.570313 15.560000
15037.719727 30773.279297 12.360000
15036.790039 30773.470703 15.610000
15037.070313 30773.310547 13.940000
15036.750000 30773.130859 14.100000
15037.000000 30772.960938 12.460000
15037.030273 30774.039063 16.969999
15037.009766 30773.750000 15.610000
15036.519531 30773.730469 16.520000
15036.969727 30773.480469 13.740000
15036.629883 30773.300781 14.000000
15037.469727 30772.769531 8.450000
15036.639648 30774.310547 18.450001
15036.730469 30773.990234 16.530001
15036.400391 30773.900391 16.570000
15036.849609 30773.669922 13.720000
15036.089844 30773.740234 16.820000
15036.519531 30773.480469 13.910000
15036.599609 30774.439453 18.080000
15036.309570 30774.279297 18.290001
15036.269531 30774.070313 16.650000
15035.980469 30773.900391 16.790001
15036.389648 30773.660156 13.870000
15036.490234 30774.589844 18.049999
15036.280273 30774.410156 17.820000
15036.150391 30774.240234 16.650000
15035.870117 30774.060547 16.750000
15036.230469 30773.869141 14.150000
15036.309570 30774.769531 18.469999
15036.280273 30774.519531 17.110001
15036.040039 30774.390625 16.549999
15035.759766 30774.220703 16.680000
15036.059570 30774.070313 14.420000
15036.259766 30774.900391 18.139999
15036.480469 30774.849609 16.770000
15036.820313 30774.769531 14.690000
15036.190430 30774.679688 16.969999
15035.919922 30774.560547 16.590000
15036.160156 30774.470703 14.880000
15035.620117 30774.400391 16.930000
15036.309570 30775.029297 17.139999
15037.080078 30774.869141 12.260000
15036.059570 30774.849609 17.090000
15036.389648 30774.750000 14.830000
15035.820313 30774.720703 16.480000
15035.509766 30774.560547 16.879999
15035.889648 30774.390625 13.760000
15036.179688 30775.189453 17.200001
15036.450195 30775.140625 15.460000
15035.959961 30775.000000 16.950001
15035.809570 30774.859375 15.680000
15035.370117 30774.730469 17.070000
15035.730469 30774.589844 14.020000
15036.769531 30774.179688 5.090000
15036.070313 30775.349609 17.190001
15035.879883 30775.160156 16.700001
15036.099609 30775.109375 15.100000
15035.690430 30775.029297 15.660000
15036.049805 30774.939453 12.760000
15036.959961 30774.710938 5.330000
15035.730469 30774.730469 12.870000
15036.610352 30774.429688 5.010000
15035.990234 30775.500000 16.950001
15035.809570 30775.310547 16.330000
15035.540039 30775.199219 15.890000
15035.900391 30775.130859 12.900000
15036.799805 30774.949219 5.250000
15035.370117 30774.980469 14.960000
15035.599609 30774.919922 12.820000
15036.440430 30774.669922 4.930000
15035.879883 30775.660156 16.930000
15035.769531 30775.470703 15.710000
15036.120117 30775.439453 13.000000
15035.740234 30775.320313 13.090000
15035.240234 30775.160156 15.060000
15035.459961 30775.109375 12.920000
15035.759766 30775.820313 16.930000
15035.500000 30775.640625 17.000000
15035.150391 30775.330078 14.700000
15035.629883 30775.980469 17.090000
15035.929688 30776.009766 14.750000
15035.400391 30775.800781 16.840000
15035.030273 30775.500000 14.650000
15035.490234 30776.140625 17.320000
15035.750000 30776.179688 15.250000
15035.190430 30775.880859 14.610000
15034.879883 30775.679688 14.920000
15035.379883 30776.289063 17.280001
15035.639648 30776.199219 12.510000
15034.870117 30776.029297 16.690001
15035.040039 30776.050781 14.880000
15035.250000 30776.080078 12.620000
15033.849609 30777.480469 16.700001
15033.599609 30777.310547 16.540001
15033.740234 30777.660156 16.450001
15033.480469 30777.460938 16.629999
15034.379883 30778.400391 13.690000
15034.089844 30778.189453 13.680000
15033.629883 30777.830078 16.410000
15033.740234 30778.089844 13.530000
15033.370117 30777.640625 16.480000
15034.240234 30778.550781 13.970000
15033.820313 30778.060547 16.709999
15033.959961 30778.390625 13.550000
15033.509766 30777.970703 16.620001
15033.599609 30778.269531 13.630000
15033.250000 30777.800781 16.549999
15034.110352 30778.740234 13.950000
15033.709961 30778.230469 16.690001
15033.839844 30778.580078 13.440000
15033.389648 30778.130859 16.670000
15033.480469 30778.470703 13.460000
15033.129883 30777.960938 16.570000
15033.929688 30778.800781 14.870000
15033.679688 30778.689453 14.090000
15033.780273 30778.900391 15.480000
15033.660156 30779.060547 15.550000
15033.419922 30779.050781 14.150000
15033.549805 30779.259766 15.340000
15033.299805 30779.240234 14.070000
15033.429688 30779.449219 15.290000
15033.169922 30779.400391 14.250000
15032.500000 30779.380859 12.010000
15033.290039 30779.539063 15.790000
15033.320313 30779.740234 14.590000
15033.040039 30779.560547 14.400000
15032.679688 30779.800781 12.050000
15032.360352 30779.580078 12.030000
15033.230469 30780.320313 12.200000
15032.919922 30780.080078 12.310000
15032.540039 30779.990234 12.120000
15032.230469 30779.750000 12.220000
15033.059570 30780.089844 14.650000
15033.089844 30780.519531 12.220000
15032.780273 30780.279297 12.280000
15032.400391 30780.179688 12.200000
15032.089844 30779.949219 12.220000
15032.940430 30780.250000 14.740000
15032.650391 30780.050781 14.760000
15032.639648 30780.429688 12.540000
15032.290039 30780.109375 13.750000
15031.990234 30779.929688 13.560000
15031.900391 30780.380859 10.740000
15032.809570 30780.400391 14.910000
15032.809570 30780.779297 12.880000
15032.530273 30780.220703 14.820000
15032.150391 30780.330078 13.550000
15031.849609 30780.130859 13.450000
15032.679688 30780.589844 14.820000
15032.400391 30780.369141 14.920000
15032.370117 30780.769531 12.770000
15032.019531 30780.480469 13.720000
15031.709961 30780.349609 13.300000
15031.639648 30780.630859 11.690000
15032.540039 30781.179688 12.850000
15032.230469 30780.929688 12.980000
15031.830078 30781.000000 11.980000
15031.780273 30781.269531 10.630000
15031.650391 30780.220703 15.010000
15032.429688 30780.980469 14.690000
15032.099609 30781.099609 13.090000
15031.799805 30780.640625 14.840000
15031.679688 30781.199219 12.010000
15031.629883 30781.460938 10.730000
15031.509766 30780.439453 14.820000
15032.299805 30781.150391 14.740000
15031.660156 30780.869141 14.600000
15031.549805 30781.369141 12.170000
15031.389648 30780.599609 14.900000
15032.169922 30781.339844 14.710000
15031.879883 30781.150391 14.650000
15031.530273 30781.019531 14.750000
15031.400391 30781.570313 12.170000
15031.360352 30780.439453 16.559999
15031.250000 30780.810547 14.800000
15032.040039 30781.519531 14.780000
15031.679688 30781.740234 12.860000
15031.400391 30781.220703 14.690000
15031.179688 30780.800781 15.660000
15031.910156 30781.689453 14.810000
15031.839844 30782.160156 12.890000
15031.280273 30781.369141 14.840000
15031.160156 30780.650391 17.139999
15031.780273 30781.869141 14.820000
15031.480469 30781.769531 14.390000
15031.250000 30781.199219 16.330000
15031.139648 30781.580078 14.710000
15031.040039 30780.820313 17.139999
15031.639648 30782.130859 14.530000
15031.469727 30781.390625 16.680000
15031.320313 30782.050781 14.010000
15031.129883 30781.339844 16.459999
15031.030273 30781.689453 15.010000
15030.910156 30781.019531 17.010000
15031.480469 30782.460938 14.010000
15031.349609 30781.570313 16.629999
15031.179688 30782.259766 13.960000
15031.030273 30781.439453 16.730000
15030.910156 30781.839844 15.150000
15030.900391 30780.880859 18.250000
15031.349609 30782.650391 14.050000
15031.250000 30781.650391 17.000000
15031.049805 30782.439453 14.000000
15030.919922 30781.570313 16.910000
15030.809570 30780.990234 18.450001
15031.209961 30782.859375 14.010000
15031.120117 30781.859375 16.850000
15030.910156 30782.630859 14.010000
15030.790039 30781.779297 16.760000
15030.690430 30781.150391 18.450001
15031.080078 30783.019531 14.100000
15030.860352 30781.380859 18.820000
15030.570313 30781.320313 18.410000
15030.950195 30783.179688 14.190000
15030.540039 30781.279297 19.139999
15030.469727 30781.339844 19.469999
15030.099609 30782.230469 16.290001
15030.230469 30781.800781 18.389999
15038.179688 30772.830078 12.470000
15037.669922 30772.369141 11.390000
15037.900391 30773.089844 13.200000
15037.769531 30772.789063 12.240000
15037.519531 30772.580078 11.470000
15037.209961 30772.349609 11.360000
15037.110352 30773.580078 16.520000
15037.929688 30773.210938 12.360000
15037.669922 30772.960938 12.020000
15037.290039 30772.830078 11.980000
15037.849609 30772.500000 8.620000
15037.009766 30772.589844 11.700000
15037.049805 30773.720703 16.219999
15037.799805 30773.400391 12.300000
15036.900391 30773.470703 15.520000
15037.459961 30773.199219 12.460000
15036.820313 30773.220703 13.980000
15037.179688 30773.019531 11.800000
15036.509766 30773.029297 14.040000
15036.750000 30772.869141 12.470000
15037.040039 30773.849609 15.640000
15036.660156 30773.699219 16.200001
15037.469727 30773.320313 11.620000
15036.280273 30773.630859 16.490000
15036.730469 30773.390625 13.740000
15036.980469 30773.250000 12.170000
15036.379883 30773.210938 14.040000
15037.209961 30772.689453 8.530000
15036.379883 30774.220703 18.549999
15036.719727 30774.089844 16.690001
15036.500000 30773.890625 16.459999
15036.129883 30773.810547 16.719999
15036.599609 30773.570313 13.700000
15036.259766 30773.390625 13.970000
15036.299805 30774.359375 18.350000
15036.059570 30774.189453 18.350000
15036.379883 30774.060547 16.459999
15036.719727 30773.919922 14.400000
15036.030273 30773.970703 16.580000
15035.709961 30773.820313 16.990000
15036.120117 30773.580078 14.030000
15036.269531 30774.490234 17.900000
15036.009766 30774.320313 18.000000
15036.219727 30774.240234 16.650000
15036.589844 30774.099609 14.380000
15035.889648 30774.140625 16.740000
15035.620117 30773.970703 16.790001
15035.990234 30773.769531 14.070000
15036.169922 30774.640625 17.840000
15036.080078 30774.410156 16.830000
15036.419922 30774.289063 14.650000
15036.629883 30774.220703 13.340000
15035.790039 30774.300781 16.629999
15036.110352 30774.169922 14.370000
15035.490234 30774.140625 16.910000
15035.820313 30773.970703 14.330000
15036.120117 30774.779297 17.500000
15035.959961 30774.580078 16.860001
15036.290039 30774.470703 14.650000
15035.660156 30774.470703 16.690001
15035.959961 30774.359375 14.510000
15035.379883 30774.300781 16.889999
15036.070313 30774.929688 17.100000
15036.030273 30774.689453 15.610000
15035.549805 30774.630859 16.690001
15035.799805 30774.550781 14.730000
15035.269531 30774.460938 16.870001
15035.969727 30775.089844 16.990000
15035.790039 30774.890625 16.389999
15035.540039 30774.759766 15.790000
15036.009766 30774.630859 12.090000
15036.889648 30774.369141 5.110000
15035.490234 30774.490234 13.960000
15036.500000 30774.089844 5.080000
15035.929688 30775.240234 16.469999
15035.639648 30775.060547 16.629999
15035.860352 30775.019531 15.010000
15035.790039 30774.839844 12.780000
15036.700195 30774.619141 5.240000
15035.219727 30774.720703 15.180000
15036.339844 30774.330078 4.940000
15035.740234 30775.410156 16.930000
15035.589844 30775.210938 16.110001
15035.650391 30775.029297 12.750000
15036.519531 30774.859375 5.280000
15035.129883 30774.880859 14.900000
15036.169922 30774.580078 4.880000
15035.620117 30775.570313 16.990000
15035.519531 30775.369141 15.710000
15035.870117 30775.339844 12.960000
15035.280273 30775.259766 14.920000
15035.490234 30775.230469 13.040000
15035.000000 30775.060547 14.880000
15035.490234 30775.730469 17.139999
15035.269531 30775.550781 16.820000
15034.889648 30775.230469 14.750000
15035.410156 30775.890625 16.879999
15035.150391 30775.710938 16.860001
15035.059570 30775.599609 14.620000
15034.750000 30775.410156 14.930000
15035.509766 30776.080078 15.100000
15034.709961 30775.769531 16.930000
15034.919922 30775.779297 14.750000
15034.629883 30775.580078 14.910000
15035.379883 30776.099609 12.550000
15034.620117 30775.929688 16.730000
15034.780273 30775.949219 14.960000
15034.349609 30775.750000 16.900000
15036.620117 30776.830078 2.920000
15034.799805 30776.189453 16.889999
15034.509766 30776.089844 16.670000
15034.769531 30776.150391 13.660000
15034.219727 30775.900391 17.080000
15034.919922 30776.429688 14.410000
15035.089844 30776.480469 12.670000
15034.389648 30776.250000 16.760000
15034.120117 30776.060547 16.980000
15034.410156 30776.150391 12.780000
15034.589844 30776.509766 16.760000
15034.280273 30776.410156 16.760000
15034.469727 30776.500000 14.220000
15033.940430 30776.189453 18.059999
15034.679688 30776.789063 14.320000
15034.820313 30776.859375 12.700000
15034.179688 30776.580078 16.500000
15034.360352 30776.689453 13.970000
15033.790039 30776.320313 18.670000
15033.910156 30776.390625 16.709999
15034.589844 30776.990234 13.930000
15034.280273 30776.900391 13.340000
15033.740234 30776.500000 17.850000
15034.009766 30776.710938 12.850000
15034.759766 30777.380859 13.890000
15034.469727 30777.169922 13.830000
15033.860352 30776.820313 18.020000
15033.959961 30776.910156 16.440001
15033.559570 30776.589844 19.350000
15033.629883 30776.650391 17.920000
15033.809570 30776.830078 14.220000
15034.620117 30777.550781 14.000000
15034.150391 30777.160156 16.680000
15033.839844 30777.070313 16.510000
15033.980469 30777.230469 13.980000
15033.519531 30776.810547 17.900000
15033.679688 30777.009766 14.320000
15033.750000 30777.099609 12.660000
15034.490234 30777.730469 14.000000
15034.019531 30777.310547 16.879999
15033.719727 30777.220703 16.670000
15033.469727 30777.060547 16.420000
15033.910156 30777.480469 16.760000
15033.610352 30777.390625 16.639999
15033.349609 30777.210938 16.490000
15033.820313 30777.679688 16.290001
15033.500000 30777.570313 16.400000
15033.230469 30777.369141 16.590000
15034.129883 30778.310547 13.630000
15033.830078 30778.099609 13.690000
15033.379883 30777.730469 16.410000
15033.120117 30777.539063 16.500000
15033.990234 30778.470703 13.900000
15033.580078 30777.980469 16.620001
15033.709961 30778.300781 13.530000
15033.259766 30777.880859 16.590000
15033.000000 30777.710938 16.490000
15033.860352 30778.650391 13.840000
15033.459961 30778.130859 16.709999
15033.139648 30778.039063 16.680000
15033.230469 30778.380859 13.400000
15032.889648 30777.859375 16.549999
15033.719727 30778.800781 14.140000
15033.339844 30778.269531 16.910000
15033.519531 30778.750000 15.840000
15033.589844 30778.980469 14.170000
15033.410156 30778.939453 15.750000
15033.450195 30779.130859 14.400000
15033.330078 30779.320313 14.340000
15033.049805 30779.160156 14.020000
15033.200195 30779.490234 14.430000
15032.919922 30779.310547 14.230000
15032.250000 30779.289063 12.020000
15033.070313 30779.650391 14.540000
15033.120117 30780.019531 12.250000
15032.790039 30779.470703 14.420000
15032.809570 30779.830078 12.100000
15032.419922 30779.710938 12.060000
15032.110352 30779.480469 12.090000
15032.980469 30780.210938 12.310000
15032.669922 30779.990234 12.300000
15032.280273 30779.900391 12.130000
15031.969727 30779.650391 12.250000
15032.809570 30779.980469 14.760000
15032.839844 30780.439453 12.120000
15032.530273 30780.189453 12.280000
15032.139648 30780.089844 12.170000
15031.830078 30779.849609 12.250000
15032.690430 30780.169922 14.690000
15032.700195 30780.570313 12.500000
15032.410156 30779.949219 14.770000
15031.740234 30779.849609 13.480000
15031.679688 30780.119141 11.790000
15032.559570 30780.310547 14.890000
15032.559570 30780.689453 12.870000
15032.280273 30780.109375 14.890000
15032.250000 30780.490234 12.790000
15031.900391 30780.220703 13.660000
15031.599609 30780.050781 13.400000
15032.440430 30780.490234 14.910000
15032.120117 30780.609375 13.190000
15031.769531 30780.390625 13.740000
15031.709961 30780.759766 11.730000
15031.469727 30780.210938 13.560000
15032.290039 30781.089844 12.820000
15031.980469 30780.849609 12.910000
15031.929688 30781.330078 10.560000
15031.669922 30780.410156 14.630000
15031.519531 30781.179688 10.660000
15031.400391 30780.140625 14.950000
15031.320313 30780.460938 13.240000
15032.179688 30780.919922 14.530000
15032.150391 30781.250000 13.010000
15031.849609 30781.019531 13.060000
15031.549805 30780.539063 14.880000
15031.259766 30780.369141 14.700000
15032.049805 30781.080078 14.670000
15031.679688 30781.419922 12.110000
15031.419922 30780.759766 14.710000
15031.230469 30780.220703 16.320000
15031.139648 30780.509766 14.920000
15031.919922 30781.250000 14.750000
15031.570313 30781.429688 12.960000
15031.290039 30780.939453 14.700000
15031.080078 30780.470703 15.980000
15031.790039 30781.439453 14.740000
15031.429688 30781.660156 12.840000
15031.200195 30780.949219 15.490000
15030.940430 30780.689453 15.760000
15031.669922 30781.580078 14.880000
15031.379883 30781.429688 14.680000
15031.169922 30780.769531 17.049999
15031.030273 30781.300781 14.740000
15030.900391 30780.630859 16.799999
15031.540039 30781.800781 14.760000
15031.240234 30781.630859 14.630000
15031.040039 30780.970703 16.900000
15030.780273 30780.789063 16.850000
15031.370117 30782.169922 14.050000
15031.230469 30781.330078 16.580000
15031.070313 30781.990234 13.910000
15030.929688 30781.109375 17.010000
15030.780273 30781.609375 14.970000
15030.669922 30780.929688 16.969999
15031.240234 30782.369141 14.020000
15031.110352 30781.470703 16.700001
15030.820313 30781.250000 17.150000
15030.679688 30780.750000 18.370001
15031.280273 30781.720703 17.090000
15031.099609 30782.560547 14.040000
15031.009766 30781.560547 16.990000
15030.709961 30781.410156 17.180000
15030.610352 30780.789063 18.870001
15030.969727 30782.750000 14.030000
15030.879883 30781.769531 16.830000
15030.700195 30781.250000 18.410000
15030.440430 30781.109375 18.240000
15030.830078 30782.960938 13.980000
15030.610352 30781.320313 18.719999
15030.320313 30781.269531 18.260000
15030.549805 30781.349609 19.200001
15030.330078 30781.130859 19.350000
15030.120117 30782.369141 16.190001
15030.230469 30781.259766 19.420000
15030.219727 30781.929688 18.280001
15030.040039 30781.599609 18.790001
15029.969727 30781.650391 19.150000
15035.929688 30774.890625 12.720000
15036.940430 30774.710938 5.240000
15035.280273 30774.830078 15.020000
15035.559570 30774.769531 12.710000
15036.480469 30774.550781 5.050000
15034.969727 30774.650391 15.320000
15035.599609 30775.320313 16.299999
15036.080078 30775.289063 12.860000
15035.790039 30775.080078 12.810000
15036.769531 30774.949219 5.180000
15035.169922 30775.009766 14.940000
15036.320313 30774.800781 4.930000
15034.910156 30774.800781 14.710000
15035.400391 30775.490234 16.940001
15035.910156 30775.480469 13.150000
15035.370117 30775.289063 15.050000
15035.620117 30775.269531 13.020000
15035.059570 30775.179688 14.730000
15034.780273 30774.980469 14.720000
15035.099609 30774.910156 11.510000
15035.290039 30775.650391 16.840000
15037.000000 30775.730469 3.790000
15034.910156 30775.359375 15.020000
15035.240234 30775.339844 11.910000
15034.450195 30775.189453 16.940001
15034.629883 30775.160156 15.020000
15035.179688 30775.640625 14.590000
15034.790039 30775.529297 14.950000
15034.309570 30775.349609 17.200001
15034.519531 30775.330078 14.860000
15035.599609 30776.060547 12.430000
15034.799805 30775.789063 16.900000
15035.040039 30775.810547 14.700000
15034.490234 30775.689453 16.840000
15034.250000 30775.509766 16.559999
15034.959961 30776.130859 16.740000
15034.700195 30775.949219 16.790001
15034.900391 30775.990234 14.850000
15034.339844 30775.839844 17.250000
15034.030273 30775.660156 17.950001
15034.839844 30776.289063 16.790001
15035.280273 30776.429688 12.770000
15034.599609 30776.109375 16.670000
15034.879883 30776.189453 13.760000
15034.280273 30776.009766 16.650000
15034.620117 30776.099609 12.590000
15033.940430 30775.820313 17.700001
15034.980469 30776.550781 14.400000
15034.469727 30776.269531 16.730000
15034.070313 30776.140625 17.820000
15033.730469 30775.939453 19.170000
15034.870117 30776.740234 14.270000
15034.360352 30776.429688 16.709999
15033.929688 30776.279297 18.290001
15034.059570 30776.339844 16.590000
15033.639648 30776.080078 19.070000
15034.269531 30776.609375 16.510000
15034.490234 30776.730469 13.890000
15033.780273 30776.400391 18.910000
15033.549805 30776.230469 18.910000
15034.650391 30777.119141 13.940000
15034.360352 30776.919922 13.820000
15033.660156 30776.529297 19.280001
15033.750000 30776.599609 17.889999
15033.459961 30776.390625 18.719999
15034.509766 30777.289063 14.020000
15034.049805 30776.939453 16.420000
15034.230469 30777.089844 13.970000
15033.639648 30776.750000 17.840000
15033.740234 30776.839844 16.299999
15033.860352 30776.960938 14.220000
15033.389648 30776.570313 17.920000
15034.179688 30777.279297 16.590000
15033.929688 30777.099609 16.480000
15034.110352 30777.279297 13.840000
15033.620117 30777.000000 16.389999
15033.290039 30776.730469 17.840000
15033.360352 30776.820313 16.290001
15034.070313 30777.439453 16.540001
15033.799805 30777.250000 16.660000
15033.490234 30777.150391 16.590000
15033.169922 30776.869141 18.010000
15033.230469 30776.970703 16.520000
15033.690430 30777.419922 16.570000
15033.379883 30777.320313 16.559999
15033.120117 30777.150391 16.260000
15033.849609 30777.779297 16.430000
15034.019531 30778.050781 13.650000
15033.589844 30777.599609 16.420000
15033.259766 30777.480469 16.520000
15033.000000 30777.300781 16.500000
15033.719727 30777.929688 16.520000
15033.900391 30778.240234 13.600000
15033.469727 30777.759766 16.379999
15033.150391 30777.650391 16.459999
15032.889648 30777.480469 16.330000
15033.599609 30778.080078 16.709999
15033.769531 30778.429688 13.530000
15033.349609 30777.910156 16.620001
15033.480469 30778.220703 16.870001
15033.349609 30778.429688 13.370000
15032.910156 30777.960938 16.639999
15032.429688 30778.839844 10.110000
15033.230469 30779.099609 14.060000
15032.280273 30779.050781 10.200000
15033.099609 30779.259766 14.250000
15032.459961 30779.230469 12.130000
15032.129883 30779.269531 10.130000
15032.969727 30779.439453 14.300000
15032.320313 30779.439453 12.050000
15031.980469 30779.500000 10.020000
15032.879883 30779.949219 12.290000
15032.570313 30779.769531 12.040000
15032.179688 30779.619141 12.170000
15031.860352 30779.460938 11.720000
15031.799805 30779.919922 8.520000
15032.740234 30780.140625 12.320000
15032.429688 30779.949219 12.120000
15032.040039 30779.839844 12.050000
15031.889648 30778.580078 18.900000
15031.719727 30779.679688 11.590000
15032.599609 30780.320313 12.420000
15032.290039 30780.160156 12.110000
15031.790039 30778.679688 19.170000
15032.450195 30780.080078 14.800000
15032.459961 30780.380859 13.150000
15032.160156 30780.080078 13.670000
15031.790039 30779.990234 13.490000
15031.410156 30780.189453 10.960000
15032.320313 30780.500000 13.510000
15032.019531 30780.279297 13.580000
15031.660156 30780.179688 13.490000
15031.349609 30779.990234 13.310000
15031.259766 30780.390625 10.970000
15032.190430 30780.769531 13.110000
15031.889648 30780.449219 13.690000
15031.530273 30780.349609 13.590000
15031.230469 30780.130859 13.610000
15032.049805 30780.990234 12.980000
15031.769531 30780.529297 14.210000
15031.690430 30781.250000 10.580000
15031.419922 30780.380859 14.380000
15031.099609 30780.289063 13.760000
15031.910156 30781.150391 13.150000
15031.870117 30781.699219 10.630000
15031.660156 30780.589844 14.860000
15031.570313 30781.210938 11.820000
15031.299805 30780.509766 14.640000
15031.000000 30780.369141 14.300000
15031.530273 30780.789063 14.750000
15031.259766 30780.310547 16.490000
15030.969727 30780.210938 15.990000
15031.610352 30781.800781 12.050000
15031.400391 30780.980469 14.720000
15031.099609 30780.650391 15.710000
15030.839844 30780.410156 15.880000
15031.549805 30781.410156 14.550000
15031.269531 30781.140625 14.830000
15030.980469 30780.789063 15.840000
15030.709961 30780.599609 15.810000
15031.410156 30781.619141 14.460000
15031.250000 30780.800781 17.020000
15031.139648 30781.330078 14.800000
15030.919922 30780.750000 16.770000
15030.610352 30780.699219 16.139999
15031.379883 30781.269531 16.600000
15031.120117 30781.029297 16.790001
15030.830078 30780.820313 17.200001
15030.500000 30780.820313 16.389999
15031.259766 30781.419922 16.660000
15031.129883 30782.109375 13.990000
15031.009766 30781.179688 16.879999
15030.889648 30781.660156 14.930000
15030.759766 30780.830078 17.840000
15030.509766 30780.640625 17.860001
15031.150391 30781.519531 16.950001
15031.059570 30781.970703 15.250000
15030.900391 30781.289063 17.070000
15030.679688 30780.859375 18.370001
15030.450195 30780.650391 18.459999
15031.019531 30781.730469 16.809999
15030.780273 30781.470703 17.040001
15030.610352 30780.880859 18.879999
15030.320313 30780.839844 18.330000
15030.900391 30781.890625 16.820000
15030.759766 30781.279297 18.370001
15030.429688 30781.269531 18.049999
15030.209961 30781.000000 18.360001
15030.929688 30781.470703 18.889999
15030.669922 30781.339844 18.730000
15030.509766 30781.910156 16.680000
15030.400391 30781.160156 19.000000
15030.110352 30781.130859 18.480000
15030.599609 30781.359375 19.190001
15030.349609 30781.150391 19.580000
15030.049805 30781.150391 18.959999
15030.190430 30781.429688 19.150000
15029.830078 30781.560547 18.100000
15030.280273 30781.980469 18.180000
15030.049805 30781.669922 18.889999
15037.969727 30772.439453 11.640000
15037.759766 30772.679688 12.010000
15037.570313 30772.390625 11.350000
15037.629883 30772.869141 11.980000
15037.429688 30772.589844 11.350000
15036.799805 30773.369141 15.540000
15037.400391 30773.109375 12.450000
15037.169922 30772.849609 11.990000
15036.830078 30772.699219 11.650000
15036.679688 30773.550781 15.560000
15037.259766 30773.310547 12.480000
15036.679688 30773.220703 13.970000
15037.080078 30773.029297 11.680000
15036.320313 30773.109375 13.930000
15036.379883 30773.789063 16.540001
15036.570313 30773.400391 13.860000
15036.870117 30773.259766 12.090000
15036.169922 30773.310547 14.060000
15036.700195 30772.589844 8.460000
15036.269531 30773.949219 16.459999
15036.759766 30773.779297 13.740000
15035.950195 30773.789063 16.750000
15036.440430 30773.580078 13.810000
15036.049805 30773.490234 14.020000
15036.330078 30773.349609 12.170000
15036.009766 30773.130859 12.230000
15036.540039 30772.820313 8.480000
15036.120117 30774.130859 16.670000
15035.849609 30773.949219 16.680000
15036.280273 30773.779297 14.040000
15035.900391 30773.679688 14.180000
15036.389648 30773.039063 8.420000
15035.980469 30774.300781 16.760000
15035.730469 30774.119141 16.690001
15036.129883 30773.970703 14.150000
15035.360352 30774.039063 17.010000
15035.709961 30773.890625 14.560000
15035.099609 30773.859375 17.030001
15035.419922 30773.689453 14.580000
15036.230469 30773.269531 8.430000
15035.879883 30774.460938 16.639999
15035.620117 30774.279297 16.629999
15036.009766 30774.150391 14.080000
15035.290039 30774.179688 16.670000
15035.669922 30774.029297 13.950000
15035.400391 30773.820313 13.740000
15035.780273 30774.619141 16.549999
15035.480469 30774.449219 16.809999
15035.169922 30774.349609 16.719999
15035.500000 30774.230469 14.260000
15035.250000 30774.009766 13.930000
15035.700195 30774.779297 16.320000
15035.370117 30774.609375 16.760000
15035.389648 30774.410156 14.140000
15035.690430 30774.320313 11.770000
15035.120117 30774.199219 13.930000
15035.679688 30774.929688 15.650000
15035.259766 30774.769531 16.700001
15035.900391 30774.640625 12.070000
15036.849609 30774.449219 5.130000
15035.179688 30774.609375 14.830000
15034.969727 30774.390625 14.100000
15035.549805 30775.109375 15.700000
15037.080078 30774.970703 5.070000
15035.669922 30774.849609 12.710000
15036.679688 30774.699219 5.110000
15034.990234 30774.800781 15.290000
15036.209961 30774.539063 4.990000
15034.759766 30774.599609 14.890000
15035.410156 30775.279297 15.870000
15035.809570 30775.259766 12.980000
15035.259766 30775.070313 14.850000
15035.540039 30775.050781 12.680000
15034.919922 30774.970703 14.860000
15036.049805 30774.789063 4.880000
15034.379883 30774.839844 17.389999
15034.639648 30774.769531 14.790000
15035.660156 30775.449219 13.080000
15035.129883 30775.250000 14.950000
15035.370117 30775.240234 12.930000
15034.809570 30775.140625 14.650000
15034.290039 30774.990234 17.160000
15034.509766 30774.949219 14.880000
15036.740234 30775.720703 3.570000
15034.660156 30775.320313 14.950000
15034.179688 30775.150391 17.070000
15034.919922 30775.599609 14.580000
15034.320313 30775.480469 17.090000
15034.530273 30775.490234 14.950000
15034.059570 30775.310547 17.170000
15034.259766 30775.300781 14.910000
15035.080078 30775.980469 14.600000
15034.759766 30775.769531 14.890000
15034.240234 30775.640625 16.840000
15034.410156 30775.660156 14.940000
15033.950195 30775.460938 17.139999
15034.709961 30776.089844 16.690001
15034.910156 30776.140625 14.910000
15034.450195 30775.910156 16.719999
15034.639648 30775.949219 14.880000
15034.070313 30775.789063 17.410000
15033.809570 30775.619141 17.580000
15034.589844 30776.250000 16.780001
15035.009766 30776.400391 12.820000
15034.339844 30776.070313 16.639999
15033.950195 30775.939453 17.580000
15034.370117 30776.070313 12.510000
15033.700195 30775.769531 17.549999
15034.480469 30776.410156 16.770000
15034.750000 30776.529297 14.090000
15034.219727 30776.230469 16.709999
15033.759766 30776.070313 18.600000
15033.459961 30775.880859 19.510000
15034.580078 30776.689453 14.530000
15034.120117 30776.400391 16.610001
15034.330078 30776.500000 14.130000
15033.629883 30776.199219 18.990000
15033.799805 30776.289063 16.639999
15033.349609 30776.009766 19.820000
15034.519531 30776.900391 13.880000
15034.000000 30776.560547 16.660000
15033.519531 30776.339844 19.040001
15033.269531 30776.160156 19.480000
15034.389648 30777.080078 13.910000
15034.519531 30777.189453 12.350000
15033.790039 30776.640625 17.959999
15034.190430 30776.949219 12.650000
15033.419922 30776.480469 19.180000
15033.209961 30776.339844 18.750000
15034.250000 30777.259766 14.010000
15033.969727 30777.070313 13.860000
15033.389648 30776.710938 17.840000
15033.490234 30776.810547 16.129999
15033.129883 30776.519531 18.120001
15033.929688 30777.240234 16.570000
15033.679688 30777.070313 16.370001
15033.849609 30777.250000 13.770000
15033.280273 30776.859375 17.840000
15033.370117 30776.970703 16.230000
15033.040039 30776.689453 17.700001
15033.809570 30777.400391 16.570000
15033.549805 30777.210938 16.629999
15033.160156 30777.000000 18.040001
15033.240234 30777.119141 16.389999
15032.910156 30776.800781 18.440001
15032.969727 30776.929688 16.520000
15033.709961 30777.570313 16.440001
15033.440430 30777.390625 16.450001
15033.120117 30777.289063 16.420000
15032.849609 30777.060547 16.950001
15033.769531 30778.029297 13.550000
15033.330078 30777.560547 16.389999
15033.009766 30777.449219 16.459999
15032.719727 30777.160156 17.590000
15033.469727 30777.890625 16.549999
15033.629883 30778.210938 13.610000
15033.209961 30777.720703 16.420000
15032.900391 30777.630859 16.299999
15033.349609 30778.050781 16.639999
15033.500000 30778.390625 13.640000
15033.089844 30777.869141 16.629999
15033.219727 30778.179688 16.900000
15032.969727 30778.029297 16.580000
15032.309570 30778.609375 10.130000
15032.160156 30778.830078 10.050000
15032.049805 30778.160156 17.120001
15032.009766 30779.039063 10.110000
15032.190430 30779.220703 12.050000
15032.190430 30779.490234 10.120000
15031.950195 30778.140625 18.510000
15031.860352 30779.250000 10.140000
15032.049805 30779.419922 12.040000
15031.830078 30778.359375 17.980000
15031.709961 30779.480469 9.980000
15032.610352 30779.939453 12.200000
15032.299805 30779.730469 12.100000
15031.910156 30779.599609 12.180000
15031.730469 30778.449219 18.430000
15031.589844 30779.439453 11.670000
15032.469727 30780.130859 12.240000
15032.160156 30779.919922 12.150000
15031.769531 30779.779297 12.260000
15031.629883 30778.550781 18.780001
15032.320313 30780.109375 13.480000
15032.009766 30780.130859 12.110000
15031.769531 30778.789063 19.230000
15031.599609 30780.230469 10.720000
15031.530273 30778.669922 18.959999
15031.299805 30779.849609 11.650000
15031.259766 30780.070313 10.240000
15032.190430 30780.330078 13.270000
15031.889648 30780.070313 13.540000
15031.480469 30780.259766 11.740000
15031.440430 30780.539063 10.170000
15031.160156 30780.050781 11.650000
15032.049805 30780.449219 13.620000
15031.759766 30780.230469 13.720000
15031.389648 30780.140625 13.500000
15031.309570 30780.640625 10.780000
15031.089844 30779.929688 13.500000
15031.000000 30780.310547 11.300000
15031.910156 30780.769531 13.010000
15031.620117 30780.419922 13.680000
15031.580078 30780.789063 11.800000
15031.250000 30780.330078 13.510000
15030.950195 30780.130859 13.420000
15031.780273 30780.939453 13.100000
15031.759766 30781.199219 11.900000
15031.509766 30780.470703 14.340000
15031.410156 30781.210938 10.710000
15031.150391 30780.380859 14.230000
15030.839844 30780.250000 13.790000
15030.750000 30780.570313 12.120000
15031.620117 30781.359375 12.070000
15031.589844 30781.660156 10.690000
15031.389648 30780.550781 14.850000
15031.030273 30780.519531 14.440000
15030.740234 30780.310547 14.430000
15031.540039 30780.980469 14.700000
15031.250000 30780.839844 14.390000
15031.000000 30780.279297 16.430000
15030.730469 30780.089844 16.410000
15030.620117 30780.449219 14.650000
15031.419922 30781.140625 14.780000
15031.129883 30780.960938 14.670000
15030.830078 30780.599609 15.740000
15030.740234 30779.859375 18.270000
15030.599609 30780.300781 16.230000
15030.500000 30780.589844 14.850000
15031.280273 30781.400391 14.480000
15031.040039 30780.900391 15.700000
15030.769531 30780.570313 16.660000
15030.620117 30780.019531 18.260000
15030.459961 30780.519531 16.010000
15030.299805 30780.980469 13.910000
15031.150391 30781.560547 14.560000
15030.969727 30780.830078 16.740000
15030.860352 30781.330078 14.640000
15030.650391 30780.720703 16.740000
15030.309570 30780.750000 15.730000
15031.099609 30781.269531 16.440001
15030.870117 30780.900391 17.120001
15030.549805 30780.830078 16.969999
15030.230469 30780.810547 16.260000
15031.000000 30781.339844 16.820000
15030.769531 30781.019531 17.330000
15030.509766 30780.740234 18.010000
15030.240234 30780.609375 17.809999
15030.040039 30781.140625 15.600000
15030.889648 30781.490234 16.930000
15030.780273 30781.980469 15.100000
15030.700195 30781.009766 18.020000
15030.440430 30780.740234 18.650000
15030.290039 30781.210938 16.850000
15030.129883 30780.750000 17.879999
15030.759766 30781.660156 16.910000
15030.570313 30781.199219 17.920000
15030.309570 30780.949219 18.450001
15030.049805 30780.830078 18.200001
15030.480469 30781.279297 18.209999
15030.169922 30781.189453 18.150000
15029.950195 30780.949219 18.370001
15029.769531 30781.400391 16.680000
15030.660156 30781.449219 18.790001
15030.410156 30781.289063 18.750000
15030.120117 30781.179688 18.780001
15029.849609 30781.070313 18.530001
15030.360352 30781.240234 19.450001
15030.040039 30781.240234 19.120001
15029.799805 30781.070313 19.090000
15030.160156 30781.679688 18.520000
15029.910156 30781.460938 18.920000
15029.669922 30781.259766 18.980000
15030.049805 30781.830078 18.540001
15029.820313 30781.550781 19.139999
15037.709961 30772.380859 11.420000
15037.559570 30772.589844 11.500000
15037.269531 30772.339844 11.300000
15037.320313 30772.830078 12.000000
15037.059570 30772.580078 11.670000
15036.790039 30773.199219 14.040000
15037.120117 30773.060547 12.320000
15036.500000 30773.000000 14.040000
15036.790039 30772.849609 12.390000
15036.690430 30773.369141 13.870000
15037.019531 30773.240234 12.110000
15036.360352 30773.189453 14.070000
15036.889648 30772.580078 8.460000
15036.019531 30773.759766 16.860001
15036.559570 30773.560547 13.860000
15036.240234 30773.359375 13.960000
15036.160156 30773.109375 12.210000
15036.730469 30772.810547 8.490000
15035.919922 30773.919922 16.760000
15036.400391 30773.759766 14.050000
15035.620117 30773.750000 16.969999
15036.080078 30773.560547 14.190000
15036.669922 30773.310547 10.560000
15036.570313 30773.029297 8.470000
15035.809570 30774.080078 16.730000
15035.959961 30773.740234 14.160000
15035.530273 30773.660156 14.600000
15036.419922 30773.259766 8.420000
15035.709961 30774.240234 16.650000
15036.120117 30774.130859 14.170000
15035.400391 30774.080078 16.920000
15035.530273 30773.789063 13.730000
15035.870117 30773.640625 11.230000
15035.549805 30774.419922 16.930000
15035.320313 30774.230469 16.670000
15035.709961 30774.099609 14.070000
15035.360352 30773.990234 14.020000
15035.440430 30774.580078 16.860001
15035.209961 30774.390625 16.620001
15035.549805 30774.289063 14.250000
15035.230469 30774.169922 14.000000
15035.750000 30774.669922 14.040000
15037.049805 30774.460938 5.380000
15035.480469 30774.460938 13.890000
15036.700195 30774.179688 5.050000
15034.650391 30774.220703 15.380000
15035.790039 30774.830078 12.820000
15036.879883 30774.699219 5.330000
15035.179688 30774.679688 15.120000
15036.530273 30774.419922 5.010000
15034.919922 30774.550781 14.430000
15034.360352 30774.449219 16.920000
15034.559570 30774.380859 15.070000
15035.360352 30775.039063 14.930000
15035.660156 30775.019531 12.770000
15035.099609 30774.849609 14.780000
15036.360352 30774.669922 4.950000
15034.450195 30774.800781 17.440001
15034.730469 30774.740234 14.930000
15034.190430 30774.619141 17.469999
15035.230469 30775.220703 14.980000
15035.500000 30775.210938 12.990000
15034.969727 30775.019531 14.790000
15034.360352 30774.949219 17.209999
15034.629883 30774.910156 14.730000
15034.110352 30774.769531 17.200001
15034.370117 30774.710938 14.510000
15035.129883 30775.400391 14.730000
15034.849609 30775.199219 14.690000
15034.250000 30775.109375 17.120001
15034.019531 30774.929688 16.940001
15034.209961 30774.890625 14.850000
15035.019531 30775.570313 14.650000
15034.709961 30775.369141 14.860000
15034.150391 30775.269531 17.049999
15034.370117 30775.259766 14.810000
15033.870117 30775.089844 17.360001
15034.870117 30775.740234 14.880000
15034.360352 30775.529297 16.910000
15034.549805 30775.539063 15.220000
15034.049805 30775.429688 16.830000
15034.250000 30775.439453 14.720000
15033.759766 30775.250000 17.270000
15034.530273 30775.869141 16.730000
15034.730469 30775.919922 14.960000
15034.240234 30775.679688 16.990000
15034.429688 30775.720703 15.160000
15033.860352 30775.570313 17.780001
15033.629883 30775.400391 17.620001
15034.419922 30776.029297 16.730000
15034.110352 30775.839844 17.170000
15034.349609 30775.900391 14.780000
15033.769531 30775.730469 17.510000
15033.450195 30775.539063 18.520000
15034.299805 30776.189453 16.709999
15033.929688 30775.970703 17.889999
15033.500000 30775.830078 19.629999
15033.290039 30775.669922 19.420000
15033.469727 30775.730469 16.730000
15034.049805 30776.279297 18.190001
15033.759766 30776.089844 18.680000
15033.379883 30775.960938 19.840000
15033.200195 30775.820313 19.230000
15033.900391 30776.410156 18.650000
15034.080078 30776.519531 16.740000
15033.620117 30776.220703 19.040001
15033.290039 30776.099609 19.830000
15033.089844 30775.960938 19.440001
15034.320313 30776.929688 12.700000
15033.559570 30776.390625 18.620001
15033.240234 30776.279297 19.000000
15033.040039 30776.130859 18.520000
15033.509766 30776.589844 17.799999
15033.780273 30776.810547 14.180000
15033.190430 30776.480469 18.090000
15033.280273 30776.560547 16.559999
15032.940430 30776.289063 18.389999
15033.759766 30777.029297 16.430000
15033.959961 30777.220703 13.970000
15033.410156 30776.750000 17.809999
15033.509766 30776.849609 16.250000
15033.089844 30776.630859 17.980000
15032.860352 30776.470703 17.730000
15033.639648 30777.179688 16.600000
15033.290039 30776.890625 17.910000
15033.389648 30777.009766 16.320000
15032.969727 30776.759766 18.360001
15033.080078 30776.919922 16.090000
15032.769531 30776.660156 17.250000
15033.519531 30777.349609 16.540001
15033.169922 30777.029297 18.070000
15033.269531 30777.169922 16.420000
15032.959961 30777.080078 16.160000
15032.660156 30776.820313 17.230000
15033.410156 30777.509766 16.540001
15033.150391 30777.339844 16.379999
15032.830078 30777.230469 16.410000
15032.540039 30776.960938 17.410000
15033.299805 30777.689453 16.400000
15033.030273 30777.500000 16.450001
15032.679688 30777.289063 17.530001
15032.429688 30777.119141 17.360001
15033.179688 30777.830078 16.590000
15032.320313 30777.250000 17.670000
15033.059570 30777.990234 16.639999
15032.110352 30777.839844 15.020000
15032.330078 30778.810547 10.120000
15031.990234 30778.580078 10.040000
15032.129883 30778.130859 17.110001
15032.179688 30779.019531 10.110000
15031.870117 30777.939453 17.090000
15032.009766 30778.099609 18.459999
15032.030273 30779.240234 10.110000
15031.769531 30777.970703 18.139999
15032.269531 30779.310547 11.940000
15031.900391 30778.259766 18.420000
15031.900391 30778.439453 17.139999
15031.669922 30778.039063 18.750000
15032.440430 30779.730469 12.020000
15032.129883 30779.500000 12.020000
15031.799805 30778.390625 18.540001
15031.740234 30779.429688 11.700000
15031.559570 30778.179688 18.830000
15032.299805 30779.900391 12.180000
15031.990234 30779.679688 12.160000
15031.690430 30778.509766 18.730000
15031.599609 30779.630859 11.670000
15031.459961 30778.339844 18.719999
15032.160156 30780.099609 12.170000
15031.879883 30778.720703 18.990000
15031.849609 30779.880859 12.160000
15031.589844 30778.619141 19.010000
15031.349609 30778.509766 18.629999
15031.299805 30778.759766 17.020000
15032.019531 30780.039063 13.570000
15031.700195 30780.160156 11.680000
15031.690430 30780.330078 10.690000
15031.299805 30780.099609 11.240000
15031.200195 30778.849609 17.490000
15031.099609 30779.320313 14.610000
15031.000000 30779.769531 11.830000
15031.879883 30780.220703 13.600000
15031.580078 30780.060547 13.350000
15031.559570 30780.349609 11.720000
15031.160156 30780.259766 11.510000
15031.089844 30778.980469 17.650000
15031.009766 30779.310547 15.730000
15031.750000 30780.410156 13.610000
15031.450195 30780.220703 13.480000
15031.080078 30780.109375 13.410000
15030.919922 30779.369141 16.330000
15030.860352 30779.619141 14.960000
15030.759766 30780.000000 12.790000
15031.639648 30780.330078 14.960000
15031.299805 30780.509766 12.970000
15031.120117 30779.449219 17.830000
15030.959961 30780.250000 13.680000
15030.870117 30779.269531 17.809999
15030.799805 30779.519531 16.430000
15030.730469 30779.810547 14.900000
15031.509766 30780.529297 14.840000
15031.209961 30780.380859 14.560000
15030.849609 30780.320313 14.250000
15030.759766 30779.419922 17.860001
15030.679688 30779.689453 16.440001
15030.580078 30780.050781 14.540000
15031.379883 30780.689453 14.930000
15031.089844 30780.509766 14.840000
