# .PCD v.7 - Point Cloud Data file format
VERSION .7
FIELDS x y z
SIZE 4 4 4
TYPE F F F
COUNT 1 1 1
WIDTH 1330
HEIGHT 1
POINTS 1330
DATA ascii
15124.389648 30822.169922 19.040001
15124.139648 30822.099609 18.990000
15123.980469 30821.919922 18.730000
15124.620117 30822.330078 18.490000
15124.330078 30822.269531 18.900000
15124.790039 30821.830078 16.450001
15124.049805 30822.230469 19.020000
15124.679688 30821.570313 15.450000
15123.990234 30821.939453 18.160000
15124.650391 30822.369141 17.920000
15125.059570 30822.019531 15.860000
15124.219727 30822.429688 19.040001
15124.450195 30821.869141 16.230000
15125.269531 30821.019531 11.520000
15125.940430 30820.320313 7.590000
15123.940430 30822.029297 17.900000
15124.400391 30821.500000 15.010000
15124.450195 30822.589844 18.480000
15124.889648 30822.230469 16.219999
15124.309570 30822.390625 18.059999
15124.650391 30822.080078 16.190001
15124.049805 30822.320313 18.020000
15124.330078 30822.039063 16.340000
15124.080078 30821.910156 16.469999
15124.400391 30821.539063 14.350000
15124.400391 30822.699219 18.290001
15124.780273 30822.390625 16.270000
15124.230469 30822.519531 18.040001
15124.570313 30822.220703 16.110001
15123.969727 30822.449219 17.990000
15124.280273 30822.140625 16.080000
15123.780273 30822.289063 17.830000
15124.059570 30821.970703 15.930000
15124.360352 30822.789063 18.020000
15124.700195 30822.529297 16.190001
15124.160156 30822.640625 17.889999
15124.490234 30822.349609 16.010000
15123.929688 30822.539063 17.690001
15123.679688 30822.439453 17.930000
15124.269531 30822.929688 18.040001
15124.549805 30822.710938 16.450001
15124.080078 30822.769531 17.830000
15124.349609 30822.529297 16.209999
15125.250000 30821.759766 10.830000
15123.849609 30822.669922 17.650000
15124.540039 30822.000000 13.100000
15124.900391 30821.650391 10.690000
15123.639648 30822.519531 17.530001
15124.160156 30823.080078 18.139999
15123.959961 30822.929688 18.049999
15124.830078 30822.199219 12.670000
15123.769531 30822.800781 17.590000
15124.089844 30822.490234 15.390000
15125.089844 30821.550781 8.610000
15123.570313 30822.630859 17.379999
15124.009766 30823.259766 18.500000
15123.809570 30823.119141 18.450001
15123.679688 30822.929688 17.549999
15123.500000 30822.750000 17.240000
15123.929688 30823.390625 18.459999
15123.740234 30823.240234 18.320000
15123.589844 30823.070313 17.580000
15124.139648 30822.580078 13.610000
15124.429688 30822.310547 11.480000
15123.400391 30822.910156 17.389999
15124.150391 30822.109375 11.340000
15123.849609 30823.509766 18.420000
15123.660156 30823.359375 18.260000
15123.400391 30823.310547 18.370001
15123.209961 30823.160156 18.230000
15123.750000 30823.650391 18.510000
15123.639648 30823.439453 17.790001
15124.559570 30822.759766 11.380000
15123.309570 30823.439453 18.350000
15123.099609 30823.310547 18.410000
15123.660156 30823.789063 18.510000
15123.480469 30823.630859 18.309999
15124.429688 30822.949219 11.460000
15123.269531 30823.529297 17.990000
15122.990234 30823.460938 18.570000
15123.549805 30823.929688 18.700001
15123.429688 30823.740234 18.080000
15123.620117 30823.609375 16.620001
15123.200195 30823.650391 17.840000
15122.929688 30823.570313 18.340000
15123.429688 30824.080078 18.959999
15123.309570 30823.890625 18.309999
15123.530273 30823.750000 16.629999
15123.089844 30823.810547 18.070000
15123.259766 30823.669922 16.530001
15122.870117 30823.679688 18.150000
15123.370117 30824.189453 18.760000
15123.169922 30824.060547 18.760000
15122.980469 30823.949219 18.250000
15123.179688 30823.810547 16.459999
15122.820313 30823.779297 17.750000
15123.280273 30824.320313 18.790001
15123.120117 30824.169922 18.510000
15122.879883 30824.089844 18.360001
15122.660156 30823.970703 18.469999
15122.950195 30824.560547 20.820000
15123.219727 30824.439453 18.650000
15123.030273 30824.300781 18.510000
15122.809570 30824.220703 18.270000
15122.570313 30824.109375 18.620001
15122.839844 30824.679688 21.070000
15123.129883 30824.570313 18.620001
15122.969727 30824.419922 18.340000
15122.700195 30824.359375 18.570000
15122.889648 30824.240234 16.490000
15122.500000 30824.220703 18.400000
15123.030273 30824.699219 18.750000
15122.839844 30824.560547 18.709999
15122.580078 30824.509766 18.910000
15122.389648 30824.369141 18.750000
15122.950195 30824.820313 18.700001
15123.169922 30824.759766 16.730000
15122.750000 30824.689453 18.780001
15122.509766 30824.630859 18.770000
15122.330078 30824.490234 18.549999
15122.480469 30824.380859 16.400000
15122.830078 30824.960938 19.090000
15122.650391 30824.830078 19.080000
15123.139648 30824.660156 13.770000
15122.419922 30824.759766 18.969999
15122.230469 30824.619141 18.760000
15122.400391 30824.519531 16.309999
15122.750000 30825.080078 19.200001
15122.589844 30824.939453 18.790001
15122.349609 30824.880859 18.799999
15122.179688 30824.730469 18.299999
15122.530273 30824.529297 12.760000
15122.679688 30825.199219 19.150000
15123.669922 30825.099609 8.550000
15122.769531 30825.019531 15.730000
15123.269531 30824.910156 9.600000
15122.330078 30824.980469 17.950001
15122.509766 30824.929688 15.420000
15122.889648 30824.820313 9.880000
15122.099609 30824.859375 18.250000
15122.429688 30824.699219 12.670000
15122.599609 30825.320313 19.219999
15123.769531 30825.289063 5.980000
15122.650391 30825.169922 16.020000
15122.370117 30825.089844 16.010000
15122.040039 30824.980469 17.830000
15122.139648 30824.939453 16.020000
15122.519531 30825.449219 19.230000
15122.549805 30825.310547 16.219999
15123.500000 30825.279297 3.080000
15122.150391 30825.250000 18.180000
15121.950195 30825.109375 17.870001
15122.200195 30825.039063 12.800000
15122.450195 30825.570313 19.120001
15122.610352 30825.599609 17.180000
15122.299805 30825.449219 18.400000
15122.049805 30825.380859 18.370001
15121.719727 30825.259766 21.320000
15121.860352 30825.240234 17.940001
15122.339844 30825.689453 19.459999
15122.000000 30825.539063 21.660000
15121.799805 30825.480469 21.709999
15121.639648 30825.369141 21.570000
15121.780273 30825.369141 17.969999
15122.280273 30825.810547 19.280001
15121.929688 30825.640625 21.750000
15121.730469 30825.580078 21.690001
15121.900391 30825.640625 17.990000
15121.559570 30825.470703 21.709999
15121.690430 30825.500000 18.070000
15122.019531 30825.849609 21.860001
15121.860352 30825.740234 21.830000
15121.660156 30825.689453 21.709999
15121.500000 30825.580078 21.750000
15121.610352 30825.630859 18.040001
15121.950195 30825.949219 21.889999
15121.799805 30825.849609 21.740000
15121.599609 30825.789063 21.700001
15121.429688 30825.679688 21.660000
15121.889648 30826.050781 21.940001
15121.730469 30825.949219 21.820000
15121.519531 30825.890625 21.959999
15121.360352 30825.779297 21.889999
15121.809570 30826.150391 22.129999
15121.660156 30826.060547 21.750000
15121.459961 30826.000000 21.760000
15121.610352 30826.240234 16.340000
15121.290039 30825.890625 21.730000
15121.759766 30826.269531 21.830000
15121.599609 30826.169922 21.700001
15121.389648 30826.099609 21.889999
15121.230469 30826.000000 21.700001
15121.290039 30826.250000 16.150000
15121.690430 30826.369141 21.850000
15121.530273 30826.269531 21.709999
15121.330078 30826.220703 21.690001
15121.419922 30826.519531 16.559999
15121.160156 30826.109375 21.680000
15121.620117 30826.460938 22.020000
15121.830078 30826.890625 16.900000
15121.450195 30826.369141 21.860001
15121.320313 30826.660156 16.690001
15121.089844 30826.210938 21.709999
15121.099609 30826.519531 16.490000
15121.730469 30827.029297 16.990000
15121.509766 30826.880859 16.900000
15121.230469 30826.800781 16.840000
15121.000000 30826.650391 16.760000
15121.639648 30827.169922 17.170000
15121.410156 30827.019531 17.090000
15121.139648 30826.939453 17.030001
15120.910156 30826.789063 16.950001
15121.549805 30827.310547 17.299999
15121.320313 30827.150391 17.330000
15121.040039 30827.070313 17.290001
15120.820313 30826.929688 17.139999
15121.450195 30827.429688 17.650000
15121.219727 30827.289063 17.510000
15120.950195 30827.199219 17.540001
15120.730469 30827.070313 17.330000
15121.129883 30827.400391 17.870001
15120.860352 30827.349609 17.639999
15120.639648 30827.189453 17.590000
15120.610352 30827.320313 16.360001
15121.040039 30827.519531 18.049999
15120.750000 30827.619141 16.490000
15120.530273 30827.390625 17.059999
15121.179688 30828.029297 16.360001
15120.950195 30827.679688 17.879999
15120.940430 30827.859375 16.450001
15120.650391 30827.769531 16.490000
15120.410156 30827.599609 16.510000
15121.080078 30828.169922 16.410000
15120.839844 30827.990234 16.590000
15120.559570 30827.900391 16.620001
15120.320313 30827.750000 16.500000
15120.980469 30828.330078 16.360001
15120.750000 30828.119141 16.680000
15120.459961 30828.029297 16.750000
15120.230469 30827.869141 16.790001
15120.650391 30828.259766 16.719999
15120.379883 30828.119141 17.139999
15120.129883 30828.029297 16.680000
15120.549805 30828.410156 16.730000
15120.299805 30828.220703 17.440001
15120.190430 30828.630859 14.680000
15120.049805 30828.130859 16.990000
15120.660156 30829.039063 14.820000
15120.480469 30828.410156 17.680000
15120.400391 30828.869141 14.760000
15120.209961 30828.339844 17.559999
15120.070313 30827.970703 19.100000
15120.620117 30828.650391 17.950001
15120.549805 30829.199219 14.870000
15120.389648 30828.550781 17.690001
15120.290039 30829.050781 14.730000
15120.190430 30828.230469 19.170000
15120.110352 30828.490234 17.549999
15119.990234 30828.080078 19.230000
15120.299805 30828.679688 17.730000
15120.019531 30828.619141 17.620001
15119.910156 30828.199219 19.280001
15119.610352 30831.240234 4.610000
15119.929688 30828.759766 17.670000
15119.490234 30830.080078 10.300000
15119.780273 30828.429688 18.719999
15119.530273 30831.189453 6.140000
15119.929688 30828.640625 19.090000
15119.820313 30828.939453 17.480000
15119.730469 30828.480469 19.180000
15119.830078 30831.240234 8.260000
15120.009766 30829.140625 17.629999
15119.839844 30828.769531 19.110001
15119.719727 30829.099609 17.430000
15119.639648 30828.619141 19.150000
15119.480469 30828.980469 17.250000
15120.150391 30829.410156 17.780001
15119.750000 30831.179688 9.550000
15119.919922 30829.289063 17.610001
15119.639648 30829.210938 17.610001
15119.040039 30830.839844 9.540000
15119.530273 30828.789063 18.969999
15119.830078 30829.419922 17.700001
15119.559570 30829.320313 17.770000
15118.959961 30830.890625 10.290000
15119.450195 30828.900391 19.100000
15120.099609 30829.169922 20.070000
15119.730469 30829.580078 17.670000
15119.620117 30829.070313 19.590000
15119.400391 30828.949219 19.510000
15119.190430 30829.410156 17.299999
15120.000000 30829.349609 19.889999
15119.400391 30831.619141 10.310000
15119.080078 30831.419922 10.190000
15119.530273 30829.210938 19.549999
15119.320313 30829.740234 17.219999
15119.389648 30828.919922 20.280001
15119.280273 30831.769531 10.500000
15119.450195 30829.310547 19.700001
15119.320313 30829.029297 20.340000
15119.830078 30829.609375 19.940001
15119.469727 30829.929688 18.040001
15119.179688 30829.890625 17.840000
15119.269531 30829.070313 20.709999
15118.959961 30829.720703 17.900000
15119.750000 30829.740234 19.930000
15119.559570 30830.349609 17.590000
15119.330078 30830.189453 17.580000
15119.120117 30829.939453 18.230000
15119.179688 30829.230469 20.580000
15119.269531 30830.240234 17.950001
15119.019531 30830.099609 18.190001
15119.669922 30829.699219 21.040001
15119.179688 30830.380859 18.010000
15118.919922 30830.269531 18.120001
15118.700195 30830.099609 18.190001
15119.580078 30829.849609 20.959999
15119.320313 30830.660156 18.090000
15119.089844 30830.500000 18.129999
15118.839844 30830.380859 18.260000
15119.230469 30830.789063 18.170000
15119.009766 30830.619141 18.200001
15118.730469 30830.550781 18.180000
15118.519531 30830.369141 18.299999
15119.080078 30831.080078 17.639999
15118.879883 30830.859375 17.920000
15119.320313 30830.289063 20.750000
15119.019531 30831.130859 17.990000
15124.589844 30821.330078 23.690001
15124.459961 30821.490234 23.889999
15124.410156 30821.279297 23.530001
15124.379883 30821.039063 22.959999
15125.809570 30819.320313 17.760000
15124.990234 30819.929688 20.010000
15124.379883 30821.599609 23.930000
15124.400391 30821.310547 23.290001
15124.250000 30821.210938 23.129999
15125.299805 30819.960938 19.270000
15125.000000 30819.939453 19.629999
15124.480469 30821.539063 23.360001
15124.370117 30821.380859 23.160000
15124.179688 30821.330078 23.150000
15124.700195 30820.710938 21.219999
15124.959961 30820.009766 19.440001
15124.400391 30821.650391 23.400000
15124.360352 30821.429688 22.950001
15124.169922 30821.369141 22.900000
15124.610352 30820.839844 21.240000
15124.469727 30820.679688 21.110001
15124.530273 30821.550781 22.690001
15124.230469 30821.599609 23.170000
15124.160156 30821.410156 22.670000
15124.419922 30820.759766 20.940001
15124.849609 30820.220703 19.180000
15124.379883 30821.740234 22.959999
15124.250000 30821.599609 22.820000
15124.179688 30821.410156 22.299999
15124.330078 30820.890625 20.969999
15124.839844 30820.250000 18.809999
15124.440430 30821.720703 22.480000
15124.219727 30821.669922 22.690001
15124.139648 30821.480469 22.150000
15124.209961 30821.060547 21.110001
15124.459961 30821.740234 22.150000
15124.280273 30821.640625 22.170000
15124.099609 30821.560547 22.030001
15124.160156 30821.160156 20.990000
15124.309570 30821.929688 22.459999
15124.240234 30821.720703 22.030001
15124.150391 30821.529297 21.500000
15124.129883 30821.220703 20.780001
15124.360352 30821.919922 21.969999
15124.660156 30821.630859 20.770000
15124.160156 30821.839844 22.070000
15124.309570 30821.380859 20.450001
15124.000000 30821.400391 20.990000
15124.570313 30821.750000 20.790001
15124.219727 30821.810547 21.490000
15124.169922 30821.570313 20.740000
15124.009766 30821.419922 20.600000
15124.500000 30821.869141 20.780001
15124.269531 30821.800781 20.950001
15124.190430 30821.580078 20.260000
15124.049805 30821.400391 19.990000
15124.519531 30821.900391 20.350000
15124.299805 30821.810547 20.469999
15124.080078 30821.740234 20.410000
15123.959961 30821.539063 20.049999
15124.480469 30821.990234 20.200001
15124.330078 30821.820313 19.969999
15124.030273 30821.830078 20.280001
15123.820313 30821.740234 20.379999
15124.320313 30822.179688 20.559999
15124.089844 30822.099609 20.730000
15123.950195 30821.949219 20.250000
15123.820313 30821.769531 19.950001
15124.559570 30822.019531 19.090000
15123.980469 30822.250000 20.889999
15123.799805 30822.150391 20.650000
15123.750000 30821.880859 19.900000
15124.459961 30822.169922 19.170000
15123.910156 30822.369141 20.879999
15124.240234 30822.050781 19.200001
15123.830078 30822.160156 20.100000
15123.950195 30821.679688 18.290001
15124.410156 30822.259766 18.980000
15124.209961 30822.130859 18.969999
15124.089844 30821.929688 18.190001
15123.839844 30821.839844 18.400000
15124.299805 30822.410156 19.110001
15124.129883 30822.250000 18.900000
15124.650391 30821.769531 16.190001
15125.549805 30820.939453 11.530000
15124.009766 30822.060547 18.160000
15123.769531 30821.949219 18.290001
15124.849609 30822.029297 15.960000
15124.549805 30821.929688 16.230000
15123.870117 30822.250000 18.520000
15124.469727 30821.640625 14.970000
15123.660156 30822.119141 18.510000
15124.320313 30822.519531 18.160000
15124.740234 30822.189453 16.010000
15124.450195 30822.080078 16.250000
15124.250000 30821.919922 15.670000
15123.830078 30821.960938 16.799999
15124.299805 30821.439453 13.750000
15124.269531 30822.630859 17.959999
15124.620117 30822.359375 16.100000
15124.370117 30822.210938 16.120001
15123.790039 30822.429688 17.930000
15124.160156 30822.070313 15.640000
15123.599609 30822.259766 17.730000
15124.339844 30821.449219 12.790000
15124.589844 30821.169922 11.150000
15124.169922 30822.779297 18.040001
15124.019531 30822.580078 17.610001
15124.339844 30822.310547 15.720000
15123.750000 30822.519531 17.629999
15123.519531 30822.390625 17.670000
15123.849609 30822.029297 15.400000
15124.040039 30822.939453 18.209999
15123.929688 30822.720703 17.620001
15124.769531 30822.019531 12.540000
15123.700195 30822.619141 17.379999
15123.599609 30822.339844 16.480000
15123.919922 30823.099609 18.389999
15123.889648 30822.820313 17.280001
15124.190430 30822.570313 15.440000
15123.639648 30822.730469 17.139999
15123.400391 30822.609375 17.280001
15123.780273 30823.269531 18.719999
15124.009766 30823.109375 17.400000
15123.780273 30822.980469 17.440001
15123.540039 30822.880859 17.270000
15123.230469 30822.820313 17.889999
15123.740234 30823.369141 18.480000
15123.650391 30823.140625 17.670000
15124.610352 30822.410156 11.410000
15123.379883 30823.080078 17.740000
15123.110352 30823.000000 18.160000
15123.809570 30823.400391 17.450001
15124.769531 30822.789063 11.470000
15123.459961 30823.349609 18.370001
15123.230469 30823.269531 18.219999
15122.980469 30823.169922 18.500000
15123.610352 30823.609375 18.200001
15123.950195 30823.400391 15.990000
15124.650391 30822.980469 11.500000
15123.379883 30823.490234 18.350000
15123.110352 30823.429688 18.430000
15122.910156 30823.289063 18.330000
15123.620117 30823.679688 17.559999
15123.320313 30823.589844 18.090000
15123.019531 30823.560547 18.450001
15122.809570 30823.439453 18.510000
15123.440430 30823.869141 18.150000
15123.240234 30823.720703 18.059999
15122.969727 30823.669922 18.150000
15122.750000 30823.539063 18.260000
15123.290039 30824.029297 18.590000
15123.150391 30823.859375 18.100000
15123.339844 30823.750000 16.650000
15122.919922 30823.769531 17.820000
15122.669922 30823.669922 18.190001
15123.230469 30824.150391 18.379999
15123.500000 30824.019531 16.400000
15123.040039 30824.009766 18.260000
15122.769531 30823.949219 18.410000
15122.570313 30823.810547 18.309999
15122.759766 30823.650391 16.420000
15123.129883 30824.289063 18.510000
15122.940430 30824.150391 18.410000
15122.679688 30824.080078 18.459999
15122.480469 30823.949219 18.450001
15123.059570 30823.480469 12.170000
15123.049805 30824.410156 18.500000
15122.839844 30824.289063 18.580000
15122.589844 30824.220703 18.510000
15122.370117 30824.099609 18.650000
15122.940430 30824.550781 18.730000
15122.750000 30824.419922 18.629999
15122.530273 30824.330078 18.240000
15122.290039 30824.220703 18.680000
15122.820313 30824.689453 19.000000
15122.629883 30824.560547 18.920000
15122.410156 30824.480469 18.680000
15122.190430 30824.359375 18.840000
15122.750000 30824.810547 18.920000
15122.559570 30824.679688 18.809999
15122.330078 30824.609375 18.730000
15122.169922 30824.449219 18.139999
15122.559570 30824.210938 12.720000
15122.639648 30824.939453 19.209999
15122.459961 30824.810547 18.990000
15122.709961 30824.740234 16.370001
15122.269531 30824.720703 18.360001
15123.000000 30824.449219 9.360000
15122.080078 30824.580078 18.170000
15122.459961 30824.369141 12.640000
15122.610352 30825.060547 18.750000
15122.910156 30825.019531 15.650000
15123.780273 30824.919922 7.100000
15122.400391 30824.929688 18.790001
15122.190430 30824.849609 18.320000
15122.629883 30824.720703 12.660000
15122.000000 30824.710938 18.180000
15122.339844 30824.539063 12.760000
15122.790039 30825.169922 15.980000
15123.719727 30825.130859 6.140000
15122.389648 30825.039063 17.930000
15122.120117 30824.970703 18.200001
15121.740234 30824.910156 21.080000
15121.910156 30824.839844 18.219999
15122.040039 30824.789063 15.970000
15122.679688 30825.310547 16.190001
15123.730469 30825.349609 4.450000
15122.450195 30825.160156 16.139999
15122.040039 30825.099609 18.180000
15122.169922 30825.089844 16.180000
15121.669922 30825.019531 21.090000
15122.389648 30825.429688 18.469999
15122.200195 30825.300781 18.230000
15121.759766 30825.240234 21.360001
15121.969727 30825.230469 17.940001
15121.599609 30825.119141 21.110001
15121.759766 30825.099609 17.910000
15122.030273 30825.500000 21.870001
15122.120117 30825.429688 18.270000
15121.679688 30825.339844 21.540001
15121.519531 30825.230469 21.450001
15121.669922 30825.230469 18.080000
15121.980469 30825.609375 21.660000
15121.809570 30825.500000 21.610001
15122.059570 30825.570313 17.900000
15121.610352 30825.449219 21.559999
15121.799805 30825.490234 18.010000
15121.450195 30825.339844 21.480000
15121.580078 30825.359375 18.290001
15121.900391 30825.710938 21.760000
15121.740234 30825.609375 21.650000
15121.549805 30825.550781 21.440001
15121.709961 30825.619141 18.030001
15121.379883 30825.439453 21.450001
15121.490234 30825.490234 18.240000
15121.839844 30825.820313 21.740000
15121.669922 30825.710938 21.680000
15121.480469 30825.660156 21.490000
15121.309570 30825.550781 21.639999
15121.750000 30825.900391 22.110001
15122.129883 30826.179688 16.219999
15121.610352 30825.810547 21.700001
15121.900391 30826.029297 16.129999
15121.410156 30825.769531 21.490000
15121.620117 30825.960938 16.070000
15121.240234 30825.650391 21.510000
15121.389648 30825.810547 15.960000
15121.700195 30826.019531 21.840000
15121.530273 30825.910156 21.889999
15121.330078 30825.859375 21.809999
15121.519531 30826.099609 16.250000
15121.169922 30825.759766 21.450001
15121.290039 30825.949219 16.020000
15121.629883 30826.130859 21.799999
15121.469727 30826.029297 21.620001
15121.269531 30825.970703 21.639999
15121.419922 30826.240234 16.209999
15121.099609 30825.859375 21.580000
15121.570313 30826.230469 21.790001
15121.400391 30826.130859 21.730000
15121.200195 30826.080078 21.610001
15121.330078 30826.390625 16.150000
15121.030273 30825.970703 21.650000
15121.059570 30826.080078 19.299999
15121.099609 30826.250000 16.020000
15121.500000 30826.339844 21.780001
15121.509766 30826.599609 16.520000
15121.129883 30826.179688 21.660000
15121.230469 30826.529297 16.350000
15120.969727 30826.119141 20.830000
15121.410156 30826.740234 16.709999
15121.129883 30826.650391 16.719999
15120.900391 30826.240234 20.700001
15120.910156 30826.500000 16.670000
15121.540039 30827.009766 17.120001
15121.320313 30826.869141 16.910000
15121.040039 30826.800781 16.850000
15120.809570 30826.630859 16.930000
15121.450195 30827.160156 17.209999
15121.219727 30827.009766 17.150000
15120.950195 30826.929688 17.110001
15120.719727 30826.779297 17.049999
15121.349609 30827.279297 17.540001
15121.129883 30827.140625 17.330000
15120.849609 30827.070313 17.250000
15120.629883 30826.919922 17.180000
15121.259766 30827.419922 17.709999
15121.030273 30827.279297 17.540001
15120.759766 30827.199219 17.450001
15121.160156 30827.529297 17.980000
15120.940430 30827.419922 17.650000
15120.669922 30827.339844 17.580000
15120.660156 30827.460938 16.480000
15121.070313 30827.669922 17.980000
15121.089844 30827.859375 16.490000
15120.849609 30827.720703 16.260000
15120.559570 30827.609375 16.530001
15120.320313 30827.449219 16.459999
15120.990234 30828.000000 16.549999
15120.750000 30827.839844 16.520000
15120.459961 30827.759766 16.459999
15120.219727 30827.619141 16.320000
15120.889648 30828.119141 16.740000
15120.650391 30827.970703 16.680000
15120.370117 30827.880859 16.700001
15120.129883 30827.750000 16.480000
15120.790039 30828.269531 16.719999
15120.559570 30828.099609 16.750000
15120.269531 30828.019531 16.730000
15120.030273 30827.900391 16.480000
15120.700195 30828.410156 16.730000
15120.469727 30828.169922 17.280001
15120.169922 30828.179688 16.670000
15120.009766 30827.800781 18.240000
15120.610352 30828.419922 17.610001
15120.570313 30828.880859 14.790000
15120.379883 30828.320313 17.270000
15120.099609 30828.220703 17.400000
15119.900391 30827.990234 17.900000
15120.519531 30828.539063 17.709999
15120.299805 30828.369141 17.799999
15120.099609 30828.050781 19.370001
15119.990234 30828.449219 16.850000
15119.830078 30828.070313 18.330000
15120.429688 30828.669922 17.820000
15120.250000 30828.300781 19.090000
15120.200195 30828.529297 17.700001
15120.009766 30828.189453 19.260000
15119.790039 30828.089844 19.030001
15120.280273 30829.210938 15.680000
15120.110352 30828.679688 17.680000
15119.910156 30828.359375 19.059999
15119.830078 30828.619141 17.559999
15119.709961 30828.199219 19.180000
15119.839844 30831.359375 5.640000
15120.000000 30828.880859 17.410000
15119.830078 30828.460938 19.209999
15119.610352 30828.349609 19.070000
15119.759766 30831.240234 7.350000
15119.990234 30828.689453 19.110001
15119.900391 30829.029297 17.400000
15119.730469 30828.630859 19.059999
15119.610352 30828.289063 20.150000
15120.049805 30829.269531 17.700001
15119.900391 30828.820313 19.110001
15119.809570 30829.169922 17.440001
15119.639648 30828.779297 18.959999
15119.540039 30829.080078 17.480000
15119.500000 30828.470703 19.870001
15119.950195 30829.429688 17.650000
15119.719727 30829.279297 17.600000
15119.540039 30828.949219 18.790001
15119.440430 30828.539063 20.100000
15119.860352 30829.570313 17.709999
15119.459961 30831.330078 9.930000
15119.629883 30829.419922 17.639999
15119.160156 30831.039063 10.240000
15119.490234 30828.970703 19.350000
15119.330078 30829.400391 17.360001
15118.799805 30830.859375 10.540000
15119.349609 30828.689453 20.040001
15119.330078 30831.490234 10.090000
15119.669922 30829.130859 19.580000
15119.480469 30828.890625 20.309999
15119.330078 30828.669922 20.709999
15119.209961 30831.669922 10.180000
15119.589844 30829.240234 19.680000
15119.379883 30829.070313 20.110001
15119.240234 30828.810547 20.670000
15119.719727 30829.470703 19.850000
15119.599609 30829.910156 18.090000
15119.500000 30829.380859 19.639999
15119.360352 30829.039063 20.750000
15119.190430 30828.859375 21.000000
15119.490234 30830.130859 17.799999
15119.269531 30829.949219 17.879999
15119.269531 30829.189453 20.680000
15119.099609 30829.009766 20.879999
15119.400391 30830.230469 17.969999
15119.200195 30830.019531 18.170000
15119.160156 30829.369141 20.450001
15119.019531 30829.130859 20.889999
15119.320313 30830.349609 18.080000
15119.099609 30830.169922 18.170000
15118.860352 30829.410156 20.280001
15119.219727 30830.500000 18.110001
15119.009766 30830.300781 18.260000
15118.730469 30830.250000 18.139999
15119.150391 30830.570313 18.360001
15118.910156 30830.460938 18.219999
15118.599609 30830.460938 17.930000
15118.650391 30829.750000 20.000000
15119.030273 30830.800781 18.110001
15118.820313 30830.609375 18.209999
15118.559570 30830.490234 18.379999
15118.570313 30829.859375 20.070000
15118.719727 30830.759766 18.230000
15124.339844 30821.359375 23.650000
15124.379883 30821.039063 23.000000
15125.200195 30819.779297 19.309999
15125.620117 30819.279297 17.770000
15124.809570 30819.869141 19.990000
15124.330078 30821.390625 23.430000
15124.309570 30821.150391 22.969999
15124.089844 30821.119141 23.040001
15125.139648 30819.890625 19.200001
15124.790039 30819.919922 19.730000
15124.330078 30821.429688 23.209999
15124.150391 30821.349609 23.270000
15124.519531 30820.640625 21.200001
15125.030273 30820.050781 19.260000
15124.769531 30819.970703 19.450001
15124.299805 30821.500000 23.070000
15124.169922 30821.359375 22.920000
15124.620117 30820.869141 21.340000
15124.500000 30820.699219 20.969999
15124.259766 30820.640625 21.170000
15124.740234 30820.039063 19.200001
15124.219727 30821.609375 23.090000
15124.099609 30821.460938 22.930000
15124.469727 30820.759766 20.740000
15124.900391 30820.259766 19.049999
15124.650391 30820.189453 19.250000
15124.290039 30821.580078 22.580000
15124.139648 30821.460938 22.530001
15124.200195 30821.099609 21.459999
15124.160156 30820.820313 20.889999
15124.660156 30820.199219 18.799999
15124.250000 30821.660156 22.490000
15124.110352 30821.529297 22.379999
15124.040039 30821.310547 21.790001
15124.049805 30820.980469 21.020000
15124.610352 30820.289063 18.650000
15124.269531 30821.669922 22.110001
15124.070313 30821.599609 22.230000
15124.120117 30821.259766 21.139999
15124.049805 30821.009766 20.670000
15124.150391 30821.830078 22.320000
15124.099609 30821.609375 21.830000
15124.089844 30821.330078 20.940001
15123.919922 30821.189453 20.900000
15124.120117 30821.900391 22.150000
15124.009766 30821.740234 21.889999
15124.259766 30821.480469 20.820000
15124.040039 30821.410156 20.799999
15123.870117 30821.279297 20.750000
15124.349609 30821.730469 20.920000
15124.219727 30821.560547 20.700001
15123.959961 30821.539063 20.820000
15123.940430 30821.230469 20.049999
15124.280273 30821.839844 20.889999
15124.240234 30821.580078 20.230000
15123.990234 30821.539063 20.299999
15123.860352 30821.339844 20.000000
15124.339844 30821.839844 20.330000
15124.110352 30821.759766 20.490000
15123.990234 30821.580078 19.940001
15123.740234 30821.509766 20.190001
15124.209961 30822.000000 20.540001
15124.049805 30821.849609 20.360001
15123.809570 30821.810547 20.420000
15123.700195 30821.599609 20.030001
15124.070313 30822.169922 20.780001
15123.950195 30822.000000 20.480000
15123.790039 30821.869141 20.129999
15123.830078 30821.480469 18.900000
15123.910156 30822.359375 21.180000
15124.410156 30821.929688 18.889999
15123.809570 30822.169922 20.799999
15123.660156 30822.039063 20.410000
15123.950195 30821.740234 18.860001
15123.790039 30821.550781 18.600000
15124.250000 30822.130859 19.260000
15123.799805 30822.230469 20.500000
15123.919922 30821.820313 18.580000
15123.750000 30821.640625 18.379999
15124.240234 30822.199219 18.920000
15124.759766 30821.769531 16.430000
15124.049805 30822.050781 18.780001
15123.929688 30821.859375 18.080000
15123.650391 30821.789063 18.450001
15124.110352 30822.359375 19.110001
15124.809570 30821.800781 15.710000
15125.679688 30821.099609 11.510000
15124.160156 30822.000000 17.760000
15124.429688 30821.759766 16.389999
15125.370117 30820.919922 11.560000
15123.830078 30822.009766 18.160000
15123.580078 30821.900391 18.320000
15124.610352 30822.029297 16.190001
15124.959961 30821.750000 14.470000
15124.349609 30821.890625 16.270000
15124.820313 30821.480469 13.780000
15125.969727 30820.470703 7.720000
15123.719727 30822.160156 18.280001
15124.379883 30821.509766 14.410000
15123.469727 30822.060547 18.459999
15123.740234 30821.769531 16.809999
15124.150391 30822.460938 18.070000
15124.519531 30822.169922 16.170000
15124.250000 30822.039063 16.280001
15123.730469 30822.199219 17.730000
15124.059570 30821.890625 15.750000
15124.429688 30821.519531 13.500000
15123.650391 30821.910156 16.760000
15124.089844 30822.570313 17.930000
15124.419922 30822.320313 16.190001
15123.879883 30822.429688 17.850000
15124.209961 30822.150391 15.970000
15123.620117 30822.349609 17.799999
15123.980469 30822.019531 15.610000
15123.419922 30822.199219 17.670000
15123.780273 30821.810547 15.290000
15124.139648 30821.429688 12.910000
15123.990234 30822.710938 17.940001
15125.290039 30821.759766 10.920000
15123.830078 30822.529297 17.600000
15123.580078 30822.439453 17.480000
15123.379883 30822.289063 17.389999
15123.660156 30821.990234 15.450000
15123.910156 30822.839844 17.889999
15123.740234 30822.669922 17.620001
15124.139648 30822.349609 15.260000
15124.589844 30821.990234 12.570000
15123.549805 30822.529297 17.129999
15123.849609 30822.259766 15.180000
15123.349609 30822.359375 16.900000
15123.769531 30823.019531 18.230000
15123.719727 30822.750000 17.190001
15124.019531 30822.519531 15.360000
15123.450195 30822.679688 17.200001
15123.240234 30822.519531 17.049999
15123.759766 30821.990234 13.230000
15123.700195 30823.140625 18.100000
15124.849609 30822.380859 11.380000
15123.589844 30822.929688 17.490000
15123.349609 30822.830078 17.309999
15124.219727 30822.080078 11.200000
15123.019531 30822.789063 18.059999
15123.700195 30823.220703 17.620001
15124.480469 30822.720703 12.870000
15124.709961 30822.570313 11.480000
15123.459961 30823.089844 17.730000
15124.410156 30822.390625 11.540000
15123.129883 30823.080078 18.180000
15122.889648 30822.970703 18.379999
15123.110352 30822.759766 16.700001
15123.559570 30823.380859 17.889999
15123.849609 30823.210938 16.110001
15123.269531 30823.300781 18.410000
15123.019531 30823.230469 18.350000
15122.790039 30823.119141 18.520000
15123.530273 30823.480469 17.510000
15124.469727 30822.939453 11.540000
15123.179688 30823.439453 18.430000
15122.929688 30823.369141 18.379999
15122.750000 30823.199219 18.090000
15123.410156 30823.640625 17.680000
15123.080078 30823.570313 18.469999
15122.839844 30823.500000 18.420000
15122.620117 30823.369141 18.469999
15123.240234 30823.810547 18.240000
15123.070313 30823.650391 17.910000
15122.799805 30823.599609 18.049999
15122.559570 30823.490234 18.280001
15123.129883 30823.960938 18.420000
15122.969727 30823.800781 18.020000
15123.169922 30823.679688 16.500000
15122.709961 30823.730469 18.049999
15122.509766 30823.589844 17.940001
15123.049805 30824.089844 18.410000
15122.879883 30823.929688 18.080000
15123.059570 30823.830078 16.580000
15122.580078 30823.890625 18.459999
15122.410156 30823.730469 18.059999
15122.559570 30823.609375 16.570000
15122.990234 30823.259766 12.200000
15122.950195 30824.220703 18.490000
15122.759766 30824.080078 18.360001
15122.509766 30824.009766 18.280001
15122.280273 30823.900391 18.530001
15122.889648 30824.339844 18.350000
15122.639648 30824.230469 18.629999
15122.410156 30824.150391 18.480000
15122.200195 30824.019531 18.520000
15122.389648 30823.890625 16.410000
15122.740234 30824.490234 18.870001
15122.570313 30824.349609 18.540001
15122.290039 30824.300781 18.799999
15122.120117 30824.150391 18.450001
15122.639648 30824.619141 18.959999
15122.469727 30824.480469 18.690001
15122.219727 30824.419922 18.660000
15122.040039 30824.269531 18.379999
15122.580078 30824.740234 18.820000
15123.129883 30824.630859 13.830000
15122.389648 30824.609375 18.650000
15122.860352 30824.460938 13.980000
15122.139648 30824.539063 18.670000
15122.000000 30824.380859 17.860001
15122.389648 30824.150391 12.620000
15122.480469 30824.869141 18.959999
15122.280273 30824.740234 18.950001
15122.879883 30824.589844 12.660000
15122.089844 30824.660156 18.340000
15121.679688 30824.630859 21.280001
15122.280273 30824.330078 12.670000
15122.709961 30824.970703 15.900000
15123.339844 30824.910156 9.540000
15122.230469 30824.859375 18.650000
15122.769531 30824.759766 12.590000
15122.019531 30824.779297 18.209999
15122.440430 30824.669922 12.660000
15121.620117 30824.730469 21.100000
15122.169922 30824.500000 12.690000
15122.599609 30825.109375 16.120001
15123.580078 30825.099609 5.830000
15122.219727 30824.980469 17.840000
15122.400391 30824.960938 15.670000
15121.959961 30824.910156 17.889999
15122.099609 30824.890625 15.930000
15121.549805 30824.839844 21.090000
15121.860352 30824.740234 15.980000
15122.049805 30824.669922 12.810000
15122.500000 30825.259766 16.200001
15123.599609 30825.330078 4.000000
15122.280273 30825.109375 16.059999
15121.669922 30825.060547 20.990000
15121.870117 30825.039063 17.990000
15121.480469 30824.949219 21.110001
15122.200195 30825.380859 18.500000
15121.790039 30825.230469 21.250000
15122.040039 30825.250000 17.990000
15121.580078 30825.169922 21.250000
15121.790039 30825.179688 17.940001
15121.410156 30825.060547 21.180000
15121.580078 30825.039063 17.920000
15121.849609 30825.439453 21.770000
15121.719727 30825.330078 21.250000
15121.959961 30825.380859 17.930000
15121.490234 30825.269531 21.559999
15121.330078 30825.169922 21.430000
15121.790039 30825.539063 21.629999
15122.080078 30825.650391 18.030001
15121.629883 30825.439453 21.520000
15121.870117 30825.509766 17.879999
15121.429688 30825.380859 21.510000
15121.259766 30825.269531 21.379999
15121.389648 30825.300781 18.250000
15121.719727 30825.650391 21.740000
15121.570313 30825.550781 21.459999
15121.780273 30825.640625 17.980000
15121.360352 30825.490234 21.530001
15121.190430 30825.380859 21.570000
15121.650391 30825.750000 21.750000
15121.490234 30825.650391 21.629999
15121.290039 30825.599609 21.490000
15121.120117 30825.490234 21.370001
15121.570313 30825.849609 21.910000
15121.419922 30825.750000 21.680000
15121.700195 30825.980469 16.309999
15121.219727 30825.699219 21.660000
15121.049805 30825.589844 21.510000
15121.200195 30825.759766 16.040001
15121.509766 30825.960938 21.840000
15121.339844 30825.849609 21.790001
15121.150391 30825.810547 21.600000
15121.339844 30826.060547 16.129999
15120.980469 30825.699219 21.520000
15121.110352 30825.910156 16.000000
15121.440430 30826.070313 21.820000
15121.280273 30825.970703 21.670000
15121.519531 30826.279297 16.280001
15121.080078 30825.910156 21.629999
15121.240234 30826.210938 16.090000
15120.910156 30825.800781 21.620001
15121.379883 30826.179688 21.700001
15121.219727 30826.080078 21.600000
15121.009766 30826.019531 21.570000
15121.150391 30826.349609 16.200001
15120.830078 30825.869141 22.340000
15120.849609 30825.949219 20.860001
15120.870117 30826.029297 19.270000
15121.309570 30826.279297 21.799999
15121.150391 30826.179688 21.680000
15121.320313 30826.560547 16.520000
15121.049805 30826.480469 16.469999
15120.780273 30826.070313 20.750000
15121.450195 30826.839844 16.889999
15121.230469 30826.699219 16.680000
15120.950195 30826.609375 16.770000
15120.709961 30826.179688 20.790001
15121.360352 30826.970703 17.090000
15121.129883 30826.830078 16.900000
15120.849609 30826.750000 16.940001
15120.629883 30826.289063 20.910000
15120.629883 30826.599609 16.809999
15121.259766 30827.109375 17.260000
15121.030273 30826.960938 17.160000
15120.759766 30826.890625 17.110001
15120.570313 30826.240234 22.860001
15120.530273 30826.740234 17.049999
15121.160156 30827.240234 17.549999
15120.940430 30827.099609 17.340000
15120.669922 30827.029297 17.230000
15120.440430 30826.900391 16.940001
15121.070313 30827.369141 17.770000
15120.849609 30827.259766 17.389999
15120.570313 30827.160156 17.500000
15120.450195 30826.410156 23.129999
15120.969727 30827.480469 18.020000
15120.750000 30827.369141 17.680000
15120.480469 30827.339844 17.209999
15120.879883 30827.630859 17.920000
15120.900391 30827.820313 16.500000
15120.660156 30827.679688 16.350000
15120.370117 30827.580078 16.480000
15120.129883 30827.429688 16.340000
15120.799805 30827.970703 16.540001
15120.559570 30827.820313 16.440001
15120.269531 30827.730469 16.430000
15120.089844 30827.369141 18.100000
15120.030273 30827.589844 16.230000
15120.700195 30828.080078 16.750000
15120.469727 30827.939453 16.660000
15120.179688 30827.839844 16.750000
15119.940430 30827.720703 16.410000
15120.610352 30828.240234 16.709999
15120.370117 30828.080078 16.719999
15120.080078 30828.000000 16.670000
15119.900391 30827.669922 17.910000
15120.509766 30828.390625 16.700001
15120.280273 30828.150391 17.219999
15120.000000 30828.070313 17.250000
15119.820313 30827.769531 18.170000
15119.370117 30829.179688 8.360000
15120.419922 30828.380859 17.660000
15120.389648 30828.859375 14.780000
15120.190430 30828.269531 17.400000
15119.919922 30828.169922 17.540001
15119.709961 30827.960938 17.860001
15119.339844 30829.080078 10.470000
15120.330078 30828.509766 17.719999
15120.150391 30828.109375 19.209999
15120.110352 30828.349609 17.770000
15119.889648 30828.080078 18.959999
15119.650391 30828.009766 18.440001
15120.240234 30828.650391 17.709999
15120.059570 30828.230469 19.240000
15120.009766 30828.539063 17.520000
15119.809570 30828.169922 19.209999
15119.589844 30828.070313 18.950001
15120.150391 30828.789063 17.740000
15119.950195 30828.490234 18.549999
15119.709961 30828.359375 18.870001
15119.509766 30828.189453 19.010000
15120.040039 30829.019531 17.360001
15119.679688 30831.279297 6.120000
15119.889648 30828.509766 19.160000
15119.809570 30828.859375 17.370001
15119.799805 30828.900391 17.160000
15119.629883 30828.470703 19.030001
15119.490234 30828.140625 20.049999
15120.009766 30828.800781 19.110001
15119.950195 30829.109375 17.650000
15119.799805 30828.660156 19.120001
15119.610352 30828.400391 20.070000
15119.419922 30828.230469 20.260000
15119.860352 30829.250000 17.670000
15119.709961 30828.789063 19.139999
15119.620117 30829.140625 17.469999
15119.509766 30828.550781 19.940001
15119.330078 30828.380859 20.090000
15119.769531 30829.400391 17.680000
15119.570313 30829.119141 18.240000
15119.110352 30830.830078 10.350000
15119.440430 30828.660156 20.030001
15119.240234 30829.210938 17.440001
15119.250000 30828.500000 20.160000
15119.669922 30829.539063 17.730000
15119.290039 30831.250000 10.320000
15119.559570 30828.970703 19.540001
15118.959961 30831.070313 10.140000
15119.360352 30828.750000 20.209999
15119.209961 30828.519531 20.680000
15119.139648 30831.519531 10.020000
15119.480469 30829.099609 19.580000
15119.320313 30828.759766 20.740000
15119.120117 30828.669922 20.559999
15119.610352 30829.320313 19.799999
15119.389648 30829.230469 19.610001
15119.230469 30828.919922 20.620001
15119.049805 30828.759766 20.740000
15119.410156 30829.880859 18.139999
15119.389648 30829.089844 20.709999
15119.169922 30828.990234 20.850000
15118.940430 30828.960938 20.440001
15119.309570 30830.060547 18.020000
15119.089844 30829.880859 18.070000
15119.070313 30829.160156 20.690001
15118.889648 30828.990234 20.820000
15119.219727 30830.189453 18.090000
15119.000000 30830.009766 18.160000
15118.959961 30829.359375 20.389999
15118.820313 30829.089844 20.930000
15119.129883 30830.330078 18.120001
15118.900391 30830.169922 18.129999
15118.809570 30829.640625 19.809999
15118.629883 30829.460938 19.959999
15119.040039 30830.449219 18.240000
15118.820313 30830.269531 18.299999
15118.519531 30829.630859 19.830000
15118.940430 30830.599609 18.240000
15118.709961 30830.460938 18.180000
15118.459961 30829.710938 20.059999
15118.820313 30830.810547 18.020000
15118.620117 30830.589844 18.240000
15125.799805 30819.189453 17.860001
15124.940430 30819.810547 19.950001
15125.299805 30818.960938 17.830000
15124.370117 30821.080078 22.980000
15125.290039 30819.800781 19.280001
15124.879883 30819.900391 19.820000
15125.250000 30819.060547 17.660000
15124.200195 30821.289063 23.270000
15124.620117 30820.570313 21.350000
15125.179688 30819.960938 19.350000
15124.879883 30819.949219 19.520000
15125.160156 30819.199219 17.620001
15124.209961 30821.310547 22.990000
15124.690430 30820.839844 21.410000
15124.559570 30820.660156 21.219999
15125.110352 30820.070313 19.260000
15124.339844 30820.599609 21.219999
15124.849609 30820.019531 19.290001
15124.620117 30819.900391 19.350000
15125.110352 30819.300781 17.420000
15124.219727 30821.339844 22.700001
15124.519531 30820.750000 21.090000
15124.820313 30820.089844 19.049999
15124.780273 30819.730469 18.320000
15124.169922 30821.429688 22.620001
15124.530273 30820.779297 20.750000
15124.280273 30820.740234 20.809999
15124.740234 30820.220703 19.010000
15124.570313 30820.029297 18.830000
15124.139648 30821.500000 22.490000
15124.230469 30821.119141 21.500000
15124.280273 30820.769531 20.469999
15124.500000 30820.150391 18.770000
15124.099609 30821.580078 22.379999
15124.290039 30821.099609 20.990000
15124.099609 30821.009766 20.850000
15124.469727 30820.210938 18.469999
15124.150391 30821.580078 21.920000
15124.160156 30821.269531 21.139999
15124.000000 30821.150391 20.930000
15123.919922 30820.910156 20.469999
15124.299805 30820.460938 18.840000
15124.139648 30821.630859 21.660000
15124.219727 30821.250000 20.590000
15123.959961 30821.240234 20.760000
15123.860352 30821.009766 20.350000
15124.299805 30820.490234 18.430000
15124.370117 30821.460938 20.459999
15124.049805 30821.470703 20.990000
15124.049805 30821.169922 20.000000
15123.919922 30820.970703 19.719999
15124.240234 30821.630859 20.660000
15124.040039 30821.519531 20.670000
15123.990234 30821.279297 19.889999
15123.799805 30821.140625 19.860001
15124.150391 30821.759766 20.690001
15124.059570 30821.539063 20.240000
15123.900391 30821.410156 19.920000
15123.690430 30821.310547 20.010000
15124.089844 30820.839844 18.040001
15124.190430 30821.779297 20.209999
15124.009766 30821.640625 20.100000
15123.750000 30821.609375 20.230000
15123.849609 30821.150391 18.770000
15124.019531 30821.970703 20.570000
15123.919922 30821.769531 20.160000
15123.950195 30821.439453 18.860001
15123.740234 30821.320313 18.889999
15123.919922 30822.109375 20.680000
15123.799805 30821.929688 20.350000
15123.879883 30821.560547 18.799999
15123.740234 30821.349609 18.450001
15123.839844 30822.240234 20.730000
15124.049805 30821.750000 18.780001
15123.860352 30821.630859 18.440001
15123.589844 30821.560547 18.790001
15124.139648 30822.039063 18.940001
15124.019531 30821.830078 18.490000
15123.780273 30821.759766 18.410000
15123.589844 30821.589844 18.270000
15123.879883 30821.269531 16.639999
15124.219727 30822.050781 18.170000
15124.620117 30821.730469 16.290001
15125.639648 30820.919922 11.510000
15124.009766 30821.910156 18.150000
15123.700195 30821.880859 18.370001
15123.469727 30821.769531 18.490000
15123.790039 30821.419922 16.600000
15124.540039 30821.869141 16.219999
15123.860352 30822.089844 18.430000
15124.509766 30821.529297 15.070000
15123.599609 30822.029297 18.459999
15123.919922 30821.730469 16.690001
15123.669922 30821.599609 16.770000
15124.429688 30822.019531 16.250000
15124.209961 30821.859375 16.110001
15124.589844 30821.539063 14.120000
15123.799805 30821.890625 16.780001
15123.570313 30821.750000 16.780001
15123.830078 30821.480469 15.220000
15124.009766 30822.410156 17.910000
15124.360352 30822.150391 16.110001
15123.790039 30822.279297 17.900000
15123.549805 30822.179688 17.740000
15124.379883 30821.419922 12.830000
15123.400391 30821.980469 17.309999
15123.669922 30821.699219 15.590000
15123.969727 30822.509766 17.629999
15124.330078 30822.259766 15.800000
15123.709961 30822.400391 17.840000
15123.509766 30822.279297 17.459999
15123.849609 30821.970703 15.330000
15124.549805 30821.339844 11.100000
15123.299805 30822.119141 17.330000
15123.580078 30821.839844 15.500000
15123.879883 30822.660156 17.660000
15124.809570 30822.009766 12.670000
15123.709961 30822.470703 17.330000
15124.080078 30822.179688 15.200000
15123.519531 30822.330078 16.840000
15123.219727 30822.259766 17.280001
15123.480469 30822.000000 15.530000
15124.150391 30821.320313 10.950000
15123.839844 30822.759766 17.340000
15124.179688 30822.529297 15.490000
15123.650391 30822.589844 17.139999
15123.370117 30822.519531 17.180000
15123.120117 30822.410156 17.340000
15123.700195 30821.830078 13.270000
15123.980469 30821.560547 11.320000
15123.730469 30822.910156 17.450001
15124.400391 30822.480469 13.720000
15123.580078 30822.720703 17.040001
15123.110352 30822.810547 18.370001
15123.349609 30822.609375 16.719999
15123.059570 30822.519531 17.120001
15123.599609 30822.000000 13.250000
15123.589844 30823.080078 17.799999
15124.419922 30822.560547 12.930000
15123.349609 30822.960938 17.920000
15124.349609 30822.240234 11.650000
15123.030273 30822.939453 18.309999
15123.250000 30822.759766 16.809999
15122.820313 30822.810547 18.299999
15123.379883 30823.289063 18.510000
15123.219727 30823.119141 18.180000
15122.919922 30823.089844 18.430000
15122.730469 30822.939453 18.320000
15123.269531 30823.429688 18.600000
15123.089844 30823.279297 18.410000
15122.870117 30823.199219 18.200001
15122.679688 30823.039063 18.020000
15122.990234 30822.759766 15.520000
15123.219727 30823.550781 18.400000
15123.019531 30823.410156 18.360001
15122.740234 30823.359375 18.540001
15122.610352 30823.160156 17.860001
15123.160156 30823.669922 18.260000
15123.400391 30823.539063 16.700001
15122.950195 30823.529297 18.240000
15122.690430 30823.470703 18.260000
15122.559570 30823.259766 17.520000
15123.099609 30823.789063 18.080000
15123.309570 30823.679688 16.639999
15122.889648 30823.650391 18.040001
15122.639648 30823.580078 17.980000
15122.519531 30823.359375 17.120001
15122.980469 30823.929688 18.270000
15122.759766 30823.800781 18.330000
15123.019531 30823.669922 16.410000
15122.549805 30823.710938 17.969999
15122.730469 30823.589844 16.430000
15122.500000 30823.449219 16.430000
15122.929688 30823.109375 12.350000
15122.870117 30824.070313 18.430000
15122.660156 30823.939453 18.450001
15122.410156 30823.880859 18.459999
15122.179688 30823.759766 18.639999
15122.389648 30823.599609 16.549999
15122.759766 30824.210938 18.639999
15122.559570 30824.080078 18.540001
15122.330078 30824.000000 18.440001
15122.549805 30823.880859 16.389999
15122.309570 30823.740234 16.500000
